# This PCD file was generated using the MATLAB® pcwrite function
# from Computer Vision Toolbox®.
# .PCD v.7 - Point Cloud Data file format
VERSION .7
FIELDS x y z
SIZE 4 4 4
TYPE F F F
COUNT 1 1 1
WIDTH 1616
HEIGHT 1
VIEWPOINT 0 0 0 1 0 0 0
POINTS 1616
DATA ascii
-9.054066 -26.807764 4.545294
-9.086198 -26.518036 4.499060
-9.019296 -26.388683 4.492486
-9.080043 -26.070251 4.431338
-9.024893 -25.999809 4.441587
11.922470 -23.692955 4.558970
11.921860 -23.065357 4.473811
11.921997 -22.759445 4.432361
11.882332 -22.055843 4.545366
11.877417 -21.695818 4.482437
11.878961 -21.356270 4.423631
-9.044385 -19.829069 4.574673
-9.046716 -19.477163 4.518931
-9.046934 -19.215725 4.477478
-9.049772 -18.963877 4.437863
11.879304 -17.698187 4.575097
11.887943 -17.330084 4.503700
11.763053 -17.024954 4.432344
11.827210 -16.873873 4.409015
-9.066989 -14.683902 4.564295
11.879181 -14.104036 4.567568
11.885118 -13.685034 4.479830
11.883893 -13.317470 4.402812
-8.732142 -4.814033 4.552567
-8.414586 -4.817670 4.472439
-7.932695 -4.835101 4.578974
-7.693414 -4.822495 4.555892
-7.432487 -4.833308 4.538753
-7.054777 -4.835010 4.511332
-6.823775 -4.834613 4.495104
-6.478390 -4.826625 4.470173
-6.193826 -4.829505 4.453426
-5.966485 -4.825723 4.439183
-5.599082 -4.821147 4.418131
3.125986 -4.800315 4.485085
5.959409 -4.803201 4.498040
6.209476 -4.800860 4.503336
-7.590362 -4.792047 4.590061
-7.240767 -4.790645 4.547988
-6.973397 -4.789935 4.516568
-6.637126 -4.794438 4.479088
-6.415204 -4.797006 4.454699
-6.120817 -4.794675 4.421780
-0.085961 -4.799851 4.597398
0.218172 -4.792142 4.578832
0.731509 -4.787335 4.552464
1.091783 -4.790610 4.537815
1.331547 -4.790711 4.528468
1.697477 -4.786057 4.460157
1.907022 -4.778704 4.458707
2.245262 -4.785839 4.465355
2.527203 -4.788632 4.492349
2.689403 -4.789472 4.470196
2.832912 -4.772941 4.461144
3.190794 -4.774364 4.484134
3.365733 -4.798615 4.481558
3.453840 -4.774764 4.501615
3.685323 -4.767486 4.492896
3.935559 -4.781627 4.472580
4.133823 -4.781320 4.510550
4.320731 -4.752276 4.558425
4.556199 -4.779325 4.528897
4.785720 -4.793721 4.477847
5.136444 -4.799054 4.482911
5.616404 -4.798171 4.489827
6.587049 -4.795970 4.512411
6.840761 -4.794227 4.519759
7.097379 -4.794822 4.528845
7.388023 -4.795674 4.539919
7.648905 -4.796456 4.550843
8.005383 -4.780972 4.562307
8.208941 -4.794534 4.575699
8.578228 -4.795058 4.594682
10.547352 -4.738933 4.400404
10.794544 -4.740972 4.426388
11.035429 -4.731219 4.449692
11.287922 -4.730977 4.476376
-8.974567 -36.244934 4.645105
-8.676400 -36.348423 4.646600
-8.226696 -36.355804 4.631479
-7.841373 -36.354412 4.617970
-7.456646 -36.347607 4.604166
-0.592488 -36.353771 4.799947
-0.342721 -36.336437 4.791082
-0.011802 -36.349968 4.783388
0.237174 -36.339672 4.775455
0.568448 -36.337788 4.766294
1.064761 -36.346539 4.754030
1.705326 -36.337963 4.696309
1.974641 -36.344002 4.730208
2.176198 -36.350033 4.648224
2.222703 -36.331230 4.722557
2.487859 -36.345695 4.679550
2.749017 -36.343918 4.637126
2.884226 -36.340321 4.707157
3.105733 -36.343262 4.666315
3.241258 -36.338802 4.627871
3.476761 -36.346226 4.659104
3.715370 -36.257526 4.644663
3.984611 -36.345398 4.615937
4.042645 -36.341904 4.679772
4.510531 -36.344761 4.638217
4.729908 -36.341705 4.603443
4.926208 -36.344887 4.630539
5.119581 -36.334881 4.654660
5.452016 -36.341999 4.648166
6.033108 -36.333588 4.634842
6.531849 -36.326607 4.623713
6.948446 -36.325321 4.615105
7.366285 -36.329025 4.607206
7.700936 -36.331062 4.600898
-9.079100 -36.145214 4.637096
11.882648 -29.710369 4.763217
11.884815 -29.287018 4.700502
11.885634 -28.869593 4.638711
-9.046494 -28.292515 4.755966
-9.081544 -28.036530 4.727971
-9.013079 -27.927296 4.695464
-9.048484 -27.679710 4.668846
-9.048839 -27.303036 4.614625
11.932882 -25.368839 4.787168
11.928823 -25.018600 4.739380
11.930197 -24.686287 4.694126
11.872904 -24.062908 4.608737
11.883935 -23.360039 4.773844
11.885139 -22.884604 4.690405
11.882871 -22.416758 4.608370
-9.041640 -21.238977 4.799932
-9.040892 -21.041128 4.768102
-9.041985 -20.753443 4.722075
-9.044212 -20.379183 4.662390
-9.045320 -20.103159 4.618419
11.888326 -18.508453 4.736139
11.877875 -18.088055 4.651848
-9.069115 -15.864856 4.779820
-9.069881 -15.528216 4.718208
-9.064402 -15.321649 4.679833
-9.070432 -15.006373 4.623179
11.885450 -14.907388 4.740575
11.884307 -14.701632 4.696002
11.882292 -14.498901 4.652208
-9.103498 -4.818895 4.679857
-8.909721 -4.816253 4.633867
-8.620291 -4.833835 4.638405
-8.527884 -4.827569 4.628245
-8.348820 -4.831796 4.613515
9.402964 -4.802026 4.643591
10.044813 -4.801476 4.685058
11.098368 -4.803861 4.762695
11.322474 -4.800851 4.779654
-9.142476 -4.780951 4.716060
-8.957024 -4.782475 4.759378
-8.673637 -4.793868 4.725276
-8.428953 -4.795444 4.694448
-8.224659 -4.792493 4.668056
-7.943997 -4.791245 4.632931
-2.666148 -4.786210 4.779718
-2.351918 -4.793019 4.754482
-2.128436 -4.788859 4.734847
-1.750505 -4.791013 4.705594
-1.498444 -4.783793 4.684456
-1.240837 -4.782920 4.665732
-0.937809 -4.769328 4.640901
-0.695219 -4.788713 4.630726
-0.329544 -4.798705 4.611105
4.959422 -4.768729 4.614026
5.204232 -4.758765 4.632062
5.518659 -4.762113 4.660406
5.828516 -4.762546 4.688363
6.052574 -4.761716 4.708869
6.392384 -4.757636 4.740162
6.705523 -4.764161 4.772373
6.935018 -4.754594 4.792958
8.879395 -4.785239 4.608210
9.088906 -4.795302 4.622984
9.678141 -4.790561 4.657779
10.505392 -4.798524 4.716655
10.868692 -4.791160 4.741606
-6.810100 -36.353783 4.995111
-6.640234 -36.359650 4.989878
-6.385213 -36.365234 4.981735
-6.126355 -36.346077 4.970857
-5.787563 -36.353085 4.960192
-5.447225 -36.346714 4.948133
-5.189018 -36.318539 4.936557
-4.856163 -36.353027 4.929366
-4.600370 -36.333672 4.918968
-4.265283 -36.346420 4.909575
-3.761150 -36.347149 4.893660
-3.425096 -36.342327 4.882614
-3.174679 -36.349586 4.875645
-2.923346 -36.346409 4.867577
-2.422616 -36.350357 4.852830
-2.088401 -36.343639 4.842106
-1.838391 -36.341969 4.834535
-1.505581 -36.342819 4.824886
-1.255607 -36.334896 4.816786
-0.920517 -36.287411 4.802053
-9.040255 -35.546886 4.988410
11.886563 -31.233490 4.989982
11.761879 -30.595898 4.891423
11.876675 -30.435728 4.870849
11.886502 -30.012365 4.808178
-9.007167 -29.939142 4.962383
-9.093369 -29.775486 4.992139
-9.006162 -29.448393 4.896997
-9.087241 -29.226645 4.908531
-9.004869 -29.127115 4.854200
-9.008989 -28.824772 4.814270
-9.086652 -28.711033 4.830337
11.936525 -26.796631 4.982274
11.938129 -26.437054 4.933098
11.931911 -25.888691 4.858115
11.757830 -24.210266 4.917136
11.847425 -24.084686 4.899701
-9.087708 -23.633738 4.979100
11.885895 -23.758232 4.844114
-9.086039 -23.393406 4.935105
-9.084413 -23.157335 4.891938
-9.085443 -22.819986 4.830585
-9.043657 -22.054581 4.931454
-9.043520 -21.847374 4.898013
-9.036878 -21.529617 4.846279
11.887779 -19.651657 4.964986
11.885015 -19.278561 4.889689
11.885640 -18.921673 4.818272
-8.931955 -17.086315 4.990412
-9.031593 -16.798553 4.948021
-9.061699 -16.410984 4.879576
-9.064990 -16.204376 4.841815
11.885139 -15.704499 4.914433
11.880686 -15.267094 4.818105
11.883911 -12.885766 4.968808
11.886584 -12.461350 4.870834
-4.437965 -4.820245 4.993737
-4.186939 -4.815358 4.983500
-3.791384 -4.811017 4.970309
-3.574130 -4.816102 4.966551
-3.295741 -4.810378 4.959085
-2.961391 -4.806083 4.952389
-2.709942 -4.808394 4.950469
-2.334540 -4.802217 4.946434
-2.092947 -4.812354 4.949456
-4.665630 -4.790366 4.979305
-4.421710 -4.780522 4.949929
-4.120288 -4.790494 4.920783
-3.784778 -4.790654 4.886376
-3.518466 -4.788236 4.859282
-3.189904 -4.788079 4.827792
-2.960256 -4.783103 4.805048
-1.869045 -4.799785 4.946162
-1.473513 -4.797669 4.948694
-1.246981 -4.793656 4.950256
-0.964744 -4.775311 4.949344
-0.587651 -4.795785 4.964231
-0.389152 -4.777265 4.963562
-0.067054 -4.786468 4.976575
0.256787 -4.792104 4.989834
0.490361 -4.780343 4.995449
7.338768 -4.748399 4.832948
7.825970 -4.753737 4.886044
8.224821 -4.724713 4.922652
8.455622 -4.747594 4.954070
8.671926 -4.746474 4.978420
-9.036198 -36.280605 5.066809
-8.886332 -36.386978 5.072690
-8.621664 -36.368698 5.061061
-8.275808 -36.372044 5.048882
-8.014919 -36.364494 5.038689
-7.755815 -36.362354 5.029216
-7.497559 -36.362034 5.020027
-7.240225 -36.363464 5.011134
11.882429 -32.532719 5.184064
11.884880 -32.202885 5.134759
11.886190 -31.713682 5.061663
-9.004330 -31.472811 5.166853
-8.910086 -30.694378 5.057557
-9.026224 -30.486851 5.066986
-9.086265 -30.115185 5.043378
11.939991 -28.320778 5.191223
11.937645 -27.926399 5.137083
11.937880 -27.545033 5.084788
11.943691 -27.183651 5.035317
11.885969 -25.673052 5.184032
11.885118 -25.224483 5.104009
11.887541 -24.795416 5.027825
-8.961272 -24.278315 5.087983
-9.055543 -24.033764 5.049925
-9.031883 -23.332071 5.137451
-9.036914 -23.118118 5.103096
-9.038896 -22.791765 5.050319
-9.046618 -22.482691 5.000886
11.885659 -20.495096 5.135604
11.884385 -20.101543 5.055618
11.959251 -19.095451 5.168797
11.959410 -18.844299 5.127239
11.957390 -18.592232 5.085509
-9.063476 -18.073263 5.189738
-9.066186 -17.605776 5.102351
11.836235 -16.844959 5.162203
11.877192 -16.428513 5.073774
11.886984 -16.097208 5.001322
11.886735 -13.652017 5.150099
11.886608 -13.376455 5.084563
11.881397 -13.190766 5.039868
-7.395935 -4.837380 5.179311
-7.017654 -4.838256 5.148852
-6.784898 -4.830682 5.128531
-6.468920 -4.829879 5.105553
-6.156129 -4.838851 5.087368
-5.926315 -4.819833 5.066709
-5.587305 -4.821040 5.047408
-5.303833 -4.800355 5.025380
-5.053031 -4.820428 5.019686
-4.689545 -4.823951 5.004908
3.837485 -4.805375 5.154784
-6.120216 -4.791646 5.151094
-5.791675 -4.788894 5.109656
-5.535561 -4.776675 5.075496
-5.184091 -4.782605 5.035776
-4.944679 -4.796144 5.012012
0.879679 -4.785205 5.014418
1.149991 -4.782821 5.026873
1.363046 -4.783256 5.038351
1.733155 -4.786924 5.124656
2.237442 -4.785284 5.132257
2.544542 -4.788104 5.163963
2.712096 -4.783771 5.138663
2.927915 -4.770442 5.136420
3.144309 -4.794614 5.156178
3.252435 -4.766294 5.160469
3.463298 -4.776639 5.166302
3.682487 -4.758170 5.170203
3.987400 -4.793725 5.150876
4.229859 -4.795409 5.152082
4.595090 -4.798320 5.155567
4.838623 -4.794101 5.156910
5.159003 -4.796224 5.162751
5.420718 -4.783092 5.163542
5.639483 -4.792790 5.171880
5.983296 -4.797711 5.182871
6.234012 -4.796380 5.190341
8.893938 -4.749890 5.004790
9.067741 -4.744596 5.023802
9.297691 -4.751021 5.052458
9.635624 -4.744081 5.091377
9.938147 -4.743968 5.128202
10.168251 -4.735862 5.154780
11.577743 -4.778170 5.183991
11.829228 -4.734510 5.198289
0.991134 -36.311466 5.390663
1.389009 -36.318947 5.379170
1.588158 -36.316013 5.372628
1.787109 -36.314018 5.366318
2.250777 -36.311771 5.352286
2.515427 -36.313820 5.344938
2.780028 -36.313610 5.337459
3.176825 -36.306004 5.325502
3.441186 -36.308968 5.318835
3.705404 -36.249840 5.303719
4.102034 -36.307938 5.301725
4.366380 -36.307316 5.295106
4.564812 -36.312843 5.291089
4.895212 -36.304661 5.282176
5.225562 -36.295315 5.273332
5.556733 -36.302315 5.266987
5.821079 -36.292114 5.259921
6.152602 -36.295326 5.253480
6.351016 -36.287441 5.248378
6.683540 -36.296032 5.243086
7.148160 -36.287941 5.233267
7.547773 -36.288891 5.226312
7.947392 -36.282368 5.218672
8.206243 -36.209213 5.204350
8.478865 -36.252598 5.206136
8.953950 -36.297363 5.205326
11.891549 -33.969173 5.399817
11.889402 -33.244141 5.290882
-9.003925 -32.952435 5.364900
11.885922 -32.885124 5.236954
-9.005384 -32.575871 5.314516
-9.008442 -32.210747 5.265791
-9.087173 -32.062229 5.339910
-9.000714 -31.822863 5.213457
-9.089173 -31.662148 5.278997
-9.088152 -31.260950 5.217809
11.945848 -29.542290 5.359167
11.945810 -29.132973 5.302859
11.941727 -28.720367 5.246118
11.885978 -26.849079 5.394645
11.888189 -26.491455 5.330564
11.886766 -26.251402 5.287478
-9.087396 -25.409023 5.304513
-9.089094 -25.145813 5.256239
-9.088082 -24.880037 5.207353
11.885681 -21.655382 5.372958
11.887435 -21.316986 5.303605
11.884418 -20.814604 5.200601
11.966829 -20.419235 5.388851
11.961668 -20.007374 5.320179
11.961048 -19.482861 5.233061
-9.062352 -18.894396 5.344560
-9.056965 -18.467649 5.263304
11.886484 -17.664505 5.353182
11.751489 -17.088264 5.207210
-9.070250 -14.675916 5.363512
11.886728 -14.401745 5.330691
11.890310 -14.033172 5.242038
-9.069242 -4.822577 5.336158
-8.829885 -4.840716 5.316364
-8.496986 -4.845332 5.283489
-8.286999 -4.848399 5.263669
-7.896928 -4.838723 5.223814
-7.631233 -4.840678 5.200477
0.532482 -4.803742 5.242760
9.125677 -4.803981 5.346085
-9.634693 -4.781474 5.387123
-7.787966 -4.786876 5.371448
-7.555157 -4.791512 5.340243
-7.243847 -4.789887 5.297115
-6.972240 -4.782279 5.258607
-6.600770 -4.792233 5.212447
-1.742502 -4.793534 5.395972
-1.490982 -4.791730 5.374274
-1.231180 -4.783027 5.350848
-0.867321 -4.777688 5.321570
-0.623707 -4.793202 5.309369
-0.286688 -4.792859 5.286823
-0.042974 -4.795522 5.272425
0.230735 -4.792293 5.255466
0.744759 -4.792809 5.228582
0.955923 -4.788686 5.217203
1.136188 -4.791398 5.210191
1.376226 -4.795302 5.201609
4.119934 -4.759353 5.232456
4.365937 -4.770783 5.258477
4.603334 -4.758191 5.277351
4.990582 -4.756146 5.314919
5.206594 -4.758241 5.337522
5.506338 -4.751864 5.367222
6.578370 -4.799956 5.203981
7.092904 -4.793839 5.223527
7.448715 -4.793908 5.240420
7.676438 -4.791034 5.251302
8.037486 -4.785922 5.269851
8.577715 -4.799298 5.307252
8.883453 -4.799680 5.327690
9.471123 -4.799478 5.370196
9.717115 -4.799941 5.389327
10.551367 -4.731990 5.202049
11.048548 -4.733687 5.266212
11.396435 -4.725528 5.309773
11.565155 -4.740205 5.335391
11.720611 -4.738999 5.355800
11.838993 -4.698052 5.362414
-9.711117 -4.530339 5.317687
-4.343725 -36.337406 5.595458
-3.932043 -36.343933 5.578650
-3.450475 -36.333916 5.557029
-2.972948 -36.334641 5.537517
-2.565910 -36.339661 5.521888
-2.293977 -36.335030 5.510529
-2.088845 -36.320393 5.500541
-1.685414 -36.330650 5.486567
-1.146847 -36.328827 5.466272
-0.805528 -36.277885 5.446858
-0.476094 -36.324448 5.441612
-0.208531 -36.322521 5.432026
0.124937 -36.324718 5.420945
0.459020 -36.314137 5.408298
0.657501 -36.328854 5.403816
11.889524 -35.095165 5.569246
11.883168 -34.691940 5.508350
-8.996486 -34.322945 5.548468
11.886642 -34.324982 5.453202
-8.998287 -33.719616 5.467515
-9.093171 -33.365631 5.539267
-8.999431 -33.327560 5.414961
-9.089082 -32.912983 5.469888
-9.086089 -32.475189 5.402880
11.953266 -31.273777 5.597853
11.900507 -30.476746 5.487626
11.945248 -29.957172 5.416279
11.887632 -27.730272 5.553335
11.888152 -27.349827 5.484804
-9.095064 -26.850956 5.570921
-9.090010 -26.396215 5.486598
-9.031683 -26.023144 5.577528
-9.091068 -25.970814 5.408206
11.891171 -22.466208 5.540724
11.890039 -22.013449 5.447049
11.976582 -21.268631 5.530804
11.970812 -20.838139 5.458786
-9.060515 -20.125980 5.578748
-9.056720 -19.756392 5.507790
-9.060874 -19.408129 5.441884
-9.060306 -19.232821 5.408507
11.888136 -18.461456 5.535601
11.885586 -18.054203 5.441939
-9.076819 -15.459905 5.530534
-9.078632 -15.264670 5.489260
11.890137 -15.346342 5.563307
11.885060 -15.128285 5.508534
-9.079819 -14.942933 5.421240
11.889686 -14.823924 5.434279
-9.506858 -5.296496 5.533844
-9.572987 -5.023271 5.455616
12.467020 -5.066508 5.529767
10.037487 -4.800118 5.415381
10.330633 -4.812358 5.443674
10.913849 -4.803840 5.493206
12.501740 -4.879476 5.492803
-9.073107 -4.754853 5.550794
-8.984333 -4.779860 5.543818
-8.637856 -4.791089 5.495023
-8.389112 -4.786405 5.457329
-8.060520 -4.789620 5.410861
-3.748584 -4.795022 5.595316
-3.514940 -4.792850 5.568624
-3.185339 -4.790938 5.532764
-2.890843 -4.788846 5.501547
-2.658765 -4.791093 5.479228
-2.343095 -4.787189 5.447638
-2.088808 -4.788774 5.424755
5.863266 -4.752187 5.405916
6.086577 -4.749070 5.429914
6.280502 -4.755944 5.453923
6.505693 -4.747499 5.477599
6.741490 -4.751714 5.506614
6.969399 -4.738805 5.530408
7.331203 -4.740769 5.575577
10.541206 -4.795314 5.456925
11.169384 -4.792272 5.513687
11.476240 -4.799375 5.545639
11.724958 -4.763846 5.559881
11.806149 -4.771125 5.570295
-9.654216 -4.411179 5.553972
-9.599142 -4.519742 5.572467
-8.303649 -36.366547 5.787498
-8.016341 -36.373310 5.773693
-7.870290 -36.366928 5.765419
-7.722032 -36.351810 5.755889
-7.438006 -36.361183 5.742964
-7.079817 -36.357010 5.724698
-6.868609 -36.365204 5.715494
-6.580122 -36.346485 5.699019
-6.229080 -36.354366 5.683347
-5.944468 -36.341213 5.668166
-5.594883 -36.343788 5.652308
-5.295477 -36.256287 5.626628
-5.097537 -36.302967 5.624070
-4.758857 -36.339272 5.613932
-3.865870 -36.330978 5.798219
-3.432965 -36.329899 5.785848
-3.063035 -36.332352 5.776320
-2.692906 -36.324173 5.765562
-2.262931 -36.329357 5.755970
-1.833136 -36.328167 5.745973
-1.465077 -36.323502 5.737345
-1.097020 -36.304119 5.726861
-0.668581 -36.305904 5.719074
-0.240747 -36.327915 5.715069
0.187566 -36.329903 5.708530
0.554780 -36.333076 5.703685
0.983123 -36.328548 5.697270
1.350691 -36.331676 5.693376
1.717607 -36.314171 5.686701
2.147473 -36.324123 5.684258
2.577529 -36.325871 5.681117
2.885878 -36.336170 5.680666
3.316775 -36.330681 5.677476
3.725290 -36.299839 5.671023
3.800973 -36.237015 5.660907
4.181354 -36.322914 5.673433
4.553957 -36.326126 5.673484
4.927927 -36.331856 5.674386
5.301916 -36.330376 5.674621
5.739987 -36.330566 5.675794
6.116172 -36.328182 5.676867
6.557585 -36.330006 5.679471
6.936762 -36.328030 5.681650
7.318488 -36.331879 5.685213
7.699744 -36.325752 5.687692
8.138051 -36.280983 5.685311
8.599104 -36.327621 5.697884
8.989988 -36.338112 5.704589
9.315363 -36.339310 5.709358
9.771816 -36.335159 5.715730
10.167389 -36.339340 5.722947
10.565045 -36.342625 5.730535
10.961209 -36.333176 5.736630
11.364057 -36.337894 5.745484
11.696886 -36.327072 5.750918
11.879112 -36.060440 5.714653
-8.997120 -35.814075 5.749156
11.886630 -35.478920 5.627041
-8.995110 -35.371410 5.689428
-8.989880 -34.928059 5.629478
-9.094905 -34.281158 5.679423
-9.093000 -33.813801 5.607802
11.955677 -32.649052 5.787906
11.955744 -32.184490 5.723666
11.948908 -31.709599 5.658011
11.895511 -28.813843 5.749595
11.888727 -28.524811 5.696949
11.889932 -28.127464 5.625154
-9.092379 -27.608204 5.710869
-9.031954 -27.260635 5.781536
-9.087965 -27.130985 5.622228
-9.025413 -26.822905 5.708786
-9.028106 -26.417873 5.642231
11.890473 -23.705105 5.798431
11.889783 -23.310682 5.716056
-9.094538 -22.959942 5.758667
11.891549 -22.931244 5.637212
-9.092386 -22.729855 5.708805
11.978069 -22.735023 5.776489
11.975735 -22.280491 5.700154
11.974888 -21.693638 5.601825
-9.050950 -21.254086 5.794384
-9.060397 -20.977551 5.742088
-9.055870 -20.584867 5.666181
-9.053970 -20.299213 5.611225
11.889733 -19.237345 5.715060
11.896197 -19.031923 5.668096
11.891624 -18.812681 5.616908
-9.071543 -16.703995 5.796944
-9.078450 -16.284498 5.707347
11.886287 -16.055424 5.740094
-9.075232 -15.794850 5.601851
11.890599 -15.671926 5.644515
-9.405712 -5.671630 5.640584
-9.436038 -5.565904 5.610623
-9.496195 -5.078985 5.697265
12.231962 -5.183879 5.735905
12.274891 -4.977763 5.679859
-9.549162 -4.766265 5.626589
-5.287899 -4.781131 5.779314
-5.078342 -4.785003 5.753170
-4.903698 -4.785577 5.730909
-4.630637 -4.795133 5.699717
-4.282209 -4.780101 5.652525
-4.083525 -4.792609 5.633004
7.579329 -4.746913 5.608490
7.823566 -4.741340 5.638320
8.231373 -4.723592 5.686920
8.488701 -4.724198 5.721536
8.758545 -4.734694 5.761239
9.012461 -4.720611 5.792512
-8.980318 -36.253136 5.892194
-8.664647 -36.337891 5.889163
-8.212825 -36.340801 5.956140
-7.827241 -36.339600 5.939627
-7.442262 -36.332970 5.922767
-7.061316 -36.338062 5.908350
-6.680991 -36.339027 5.893782
-6.301672 -36.337460 5.879332
-5.860075 -36.331100 5.862385
-5.412836 -36.274117 5.837966
-5.045352 -36.323719 5.833432
-4.671946 -36.326344 5.821833
-4.299592 -36.330090 5.810901
-9.093606 -35.729885 5.901399
-9.093168 -35.230995 5.824866
11.958952 -34.106964 5.989814
11.958031 -33.129322 5.854377
11.895919 -30.100216 5.983302
11.892755 -29.652636 5.901721
11.890306 -29.219234 5.822893
-9.096669 -29.100571 5.988157
-9.093424 -28.749126 5.922616
-9.094450 -28.418465 5.861265
-9.027555 -28.274134 5.948924
-9.094078 -28.090380 5.800355
-9.027702 -27.975769 5.899502
-9.027070 -27.680387 5.850565
11.890309 -24.628801 5.992093
-9.059633 -24.051504 5.992121
11.752447 -24.135300 5.878912
11.900249 -24.053455 5.933763
11.980871 -23.671707 5.934122
-9.095827 -23.542675 5.884838
-9.097343 -23.195673 5.809862
11.982901 -23.051155 5.829735
-9.051479 -22.068941 5.951921
-9.053484 -21.865358 5.912698
-9.057542 -21.567261 5.855478
11.890418 -20.450748 5.998889
11.888896 -20.057899 5.906456
11.894288 -19.612371 5.802825
-9.080132 -17.464237 5.963199
-8.944532 -17.097124 5.865510
11.754641 -17.049326 5.974734
-8.979290 -16.927824 5.833254
11.838523 -16.865376 5.939035
11.891298 -16.464918 5.844334
-6.600714 -4.788276 5.964632
-6.344423 -4.797725 5.930128
-6.078978 -4.795926 5.891874
-5.757818 -4.793586 5.846391
-5.500090 -4.778481 5.806779
9.152027 -4.727227 5.813852
9.326328 -4.719310 5.836351
9.676018 -4.725564 5.888202
9.982117 -4.728507 5.933538
10.220976 -4.729623 5.969138
11.869881 -35.376888 6.165778
11.913275 -34.985817 6.111589
11.964592 -34.625320 6.061717
11.864821 -31.245794 6.191081
11.785986 -30.571636 6.064685
11.894462 -30.546223 6.064517
-9.090770 -29.967905 6.149275
-9.058222 -29.473320 6.102150
-9.022699 -29.031530 6.074271
11.867632 -25.564589 6.187997
11.904354 -25.198072 6.112982
-9.070229 -24.839678 6.164450
11.914356 -24.861959 6.087193
11.973158 -24.627605 6.095213
-8.964539 -24.295094 6.037058
-9.050638 -23.259958 6.183409
-9.051864 -22.818499 6.097514
-9.056833 -22.502922 6.036636
11.885241 -21.173935 6.169262
11.891932 -20.774225 6.075318
-9.071514 -18.402174 6.167645
-9.071961 -18.239859 6.131990
-9.069337 -17.994568 6.077803
-9.069523 -17.757528 6.025894
11.892161 -17.692152 6.159058
-8.065565 -4.788686 6.191180
-7.754211 -4.788432 6.141036
-7.520584 -4.792155 6.105310
-7.171869 -4.792401 6.051448
-6.904706 -4.793405 6.011216
10.598600 -4.717750 6.022717
11.043156 -4.715280 6.090013
11.301697 -4.720952 6.131557
11.502008 -4.714868 6.161415
1.820610 -36.347748 6.363729
2.230138 -36.348034 6.357778
2.639945 -36.343376 6.351437
3.052304 -36.351254 6.347130
3.298235 -36.342453 6.342782
3.624830 -36.319542 6.335600
3.959745 -36.345139 6.335389
4.126492 -36.351322 6.334430
4.539800 -36.340736 6.328584
4.790386 -36.346268 6.326875
5.039362 -36.340172 6.323650
5.437385 -36.338306 6.356948
5.958962 -36.333538 6.314920
6.001553 -36.342247 6.383665
6.357651 -36.337532 6.344650
6.584495 -36.332581 6.371772
6.860331 -36.334473 6.337748
7.226963 -36.338753 6.307276
7.450469 -36.332283 6.331372
7.745171 -36.329674 6.327744
7.995433 -36.344353 6.304315
8.070399 -36.260078 6.315139
8.334396 -36.329338 6.300863
8.424293 -36.305592 6.338704
8.765820 -36.334705 6.300201
8.933062 -36.332565 6.335529
9.197315 -36.332939 6.298848
9.272264 -36.343292 6.332603
9.491080 -36.331261 6.313349
9.714281 -36.319496 6.296014
10.066927 -36.332489 6.297466
10.505063 -36.333160 6.297351
10.764244 -36.317963 6.295251
11.037201 -36.344803 6.299150
11.293295 -36.315090 6.295247
11.635601 -36.275810 6.290289
11.824005 -35.768116 6.220032
11.704894 -32.289928 6.376210
11.740905 -32.052032 6.333904
11.797289 -31.709707 6.273324
-8.897264 -31.216681 6.370743
-8.957308 -30.749126 6.320842
-9.013649 -30.476145 6.314141
-9.039404 -30.276028 6.243614
-9.020802 -29.827925 6.206600
11.718122 -26.429087 6.377939
11.756191 -26.157856 6.327987
-8.883637 -25.951103 6.392243
11.803321 -25.996759 6.275404
11.811293 -25.789257 6.288228
-8.947689 -25.571766 6.314271
11.887764 -25.274200 6.202620
-9.030039 -25.124580 6.223264
11.711514 -22.068653 6.366304
11.786649 -21.678135 6.279856
11.846264 -21.356829 6.208953
-8.959900 -19.401562 6.374959
-9.004449 -19.129793 6.320055
-9.067461 -18.812012 6.257577
11.743265 -18.801922 6.343686
11.749496 -18.403049 6.325781
11.805952 -18.424473 6.271976
11.820038 -18.040510 6.240047
-8.983146 -15.446721 6.351186
-9.037734 -15.194541 6.298413
-9.083683 -14.935813 6.243060
-8.910559 -4.717990 6.311200
-8.647205 -4.794789 6.288766
-8.432905 -4.780675 6.248929
-8.350468 -4.779237 6.234887
-9.076630 -4.422356 6.255161
-1.970536 -36.352882 6.589384
-1.718248 -36.328556 6.577694
-1.385994 -36.342758 6.569132
-0.885304 -36.324028 6.550810
-0.554217 -36.349834 6.544410
-0.304013 -36.332275 6.534394
0.110266 -36.352291 6.525113
0.608644 -36.339561 6.509046
0.940265 -36.343208 6.500327
1.189037 -36.340931 6.493211
1.686247 -36.341415 6.480032
2.017667 -36.342491 6.471602
2.266228 -36.347504 6.466006
2.514682 -36.331108 6.457456
2.846209 -36.343231 6.451101
3.094737 -36.339355 6.444594
3.426249 -36.338890 6.436789
3.755298 -36.260582 6.418006
4.007027 -36.348591 6.425057
4.338009 -36.327332 6.414794
4.587197 -36.331821 6.410138
4.919683 -36.337429 6.404064
-8.664671 -34.014442 6.515707
11.548794 -33.250320 6.547222
11.591070 -33.012966 6.505001
-8.709753 -32.417679 6.584939
11.669940 -32.534992 6.419934
-8.805050 -32.043449 6.561975
-8.773510 -32.008327 6.511793
-8.857961 -31.638689 6.497737
-8.832936 -31.596130 6.437983
-8.911427 -31.244963 6.435490
11.575272 -27.416294 6.560189
11.563463 -27.279325 6.534112
-8.723722 -26.806923 6.567783
11.639523 -26.917301 6.467307
11.669441 -26.708958 6.441520
-8.777431 -26.513985 6.507466
-8.813019 -26.323000 6.468268
11.550352 -22.870144 6.544898
-8.707027 -22.771008 6.589132
-8.765768 -22.467609 6.518768
11.633248 -22.466829 6.454892
-8.806521 -22.237722 6.465237
-8.843142 -22.111317 6.437321
-8.762210 -20.511877 6.599616
-8.794711 -20.382011 6.574259
-8.830216 -20.165699 6.529936
-8.872579 -19.965059 6.490066
11.552448 -19.982399 6.569642
-8.897612 -19.736986 6.442114
11.601471 -19.681694 6.511893
11.569090 -19.245462 6.525976
11.664040 -19.283531 6.435532
11.663057 -18.822308 6.425292
-8.768847 -16.589508 6.599752
-8.827885 -16.248947 6.524269
-8.914536 -15.820313 6.431953
-7.471445 -36.356010 6.796006
-7.213013 -36.354179 6.784904
-6.698576 -36.355606 6.763846
-6.272264 -36.362144 6.747511
-5.930211 -36.356976 6.733120
-5.672694 -36.343018 6.720997
-5.406924 -36.272182 6.700531
-5.159276 -36.315479 6.697192
-4.827818 -36.364155 6.691564
-4.572609 -36.353012 6.680402
-4.320563 -36.361839 6.672339
-3.981213 -36.344540 6.657474
-3.729647 -36.351818 6.649453
-3.392488 -36.342270 6.636139
-2.974051 -36.351162 6.622829
-2.555301 -36.350571 6.608465
-2.304492 -36.351082 6.600142
1.022715 -36.299622 6.794392
1.420827 -36.311501 6.783020
1.752795 -36.315464 6.772819
1.885305 -36.321045 6.769557
2.283958 -36.305824 6.754496
2.615582 -36.297554 6.743086
2.880414 -36.302555 6.736259
3.211416 -36.308491 6.727993
3.542445 -36.311211 6.719484
3.740989 -36.204994 6.695686
4.071951 -36.283894 6.701096
4.469206 -36.300602 6.694335
4.667945 -36.303928 6.690265
4.932771 -36.299492 6.683511
5.263936 -36.296711 6.675823
5.594827 -36.284771 6.666888
5.860352 -36.288780 6.662366
6.258684 -36.289227 6.654992
6.657444 -36.288086 6.647830
7.123078 -36.283726 6.639580
7.456129 -36.280563 6.634038
7.655017 -36.266949 6.628878
7.988895 -36.265072 6.624146
8.392900 -36.284065 6.622549
8.594815 -36.288902 6.621144
8.996616 -36.277134 6.614984
8.248185 -36.192539 6.608311
-8.425566 -35.970757 6.782368
-8.490120 -35.481514 6.715818
-8.578455 -34.738426 6.614408
11.371943 -34.415642 6.756444
11.431660 -34.017986 6.684877
11.491604 -33.633366 6.615888
-8.606009 -33.410713 6.778487
-8.530913 -33.553017 6.788400
-8.575268 -33.257130 6.735155
-8.647038 -33.130604 6.734040
-8.692788 -32.869297 6.693122
-8.665614 -32.693275 6.634196
-8.727384 -32.580891 6.646961
-8.764627 -32.305244 6.603173
11.381968 -28.700024 6.776031
11.362655 -28.389368 6.761170
11.444458 -28.256741 6.701289
11.432199 -28.014423 6.684308
11.510429 -27.832294 6.629954
-8.577870 -27.622103 6.736593
11.502472 -27.652521 6.610562
-8.634542 -27.314447 6.672878
-8.672405 -27.115049 6.631752
-8.602145 -26.531252 6.786952
-8.642385 -26.210487 6.726752
-8.701422 -25.941336 6.678603
-8.761644 -25.548620 6.606238
-8.549583 -23.545933 6.769273
11.413040 -23.577337 6.704812
11.487015 -23.228718 6.626294
-8.627568 -23.148888 6.676523
-8.632046 -21.246878 6.750404
-8.662578 -21.105099 6.721829
-8.715589 -20.811674 6.661714
11.396067 -20.901699 6.746808
11.449036 -20.590801 6.686746
11.481728 -20.381668 6.646306
11.462297 -20.093346 6.659284
11.491301 -19.636789 6.621097
-8.597225 -17.446638 6.788785
-8.645299 -17.216005 6.737876
-8.723083 -16.812193 6.648349
-8.256126 -36.389637 6.834415
-7.993057 -36.374622 6.820889
-7.731325 -36.362129 6.807906
-3.427429 -36.334019 6.984244
-3.085035 -36.331791 6.967545
-2.881414 -36.337833 6.959084
-2.538167 -36.319798 6.940212
-2.198613 -36.318123 6.924668
-1.995311 -36.317257 6.915555
-1.657898 -36.320171 6.901506
-1.119210 -36.323822 6.879539
-0.776194 -36.263020 6.855055
-0.379914 -36.314610 6.848413
0.088211 -36.315193 6.830702
0.555621 -36.312405 6.813073
0.821590 -36.320026 6.804942
1.740701 -36.330193 6.997539
2.170739 -36.330788 6.994433
2.601448 -36.332642 6.992328
2.908850 -36.325775 6.989739
3.341450 -36.334259 6.990316
3.771101 -36.302975 6.984052
4.206815 -36.322800 6.988387
4.580931 -36.334244 6.991697
4.953100 -36.322861 6.991210
5.329167 -36.332417 6.995354
5.766606 -36.324963 6.997389
11.177064 -35.628765 6.975215
11.244278 -35.219814 6.901372
11.309378 -34.815025 6.828366
-8.444722 -34.595337 6.967815
-8.392010 -34.463940 6.952573
-8.489080 -34.302753 6.921265
-8.437773 -34.150146 6.895842
-8.505877 -33.922325 6.856729
-8.570141 -33.711601 6.826824
11.204145 -29.909828 6.980581
11.249582 -29.602150 6.928472
11.271790 -29.166595 6.888340
-8.382901 -28.697554 6.960604
11.295916 -28.783432 6.842585
-8.440349 -28.358658 6.889543
-8.503590 -28.050856 6.825954
-8.415299 -27.672750 6.998465
-8.454987 -27.472046 6.961730
-8.518698 -27.041481 6.881277
-8.553494 -26.838331 6.843811
11.162402 -24.850637 6.996531
11.201932 -24.604702 6.939080
-8.363608 -24.442123 6.979186
-8.395178 -24.265993 6.937312
11.265184 -24.307676 6.871172
11.326412 -24.014704 6.804400
-8.466434 -23.947647 6.863163
-8.485099 -22.101259 6.928001
11.175901 -22.190147 6.997166
11.233763 -21.863861 6.933618
-8.549657 -21.701662 6.844250
11.329386 -21.334084 6.830851
-8.385642 -20.971777 6.959809
11.214244 -20.904652 6.932085
11.247717 -20.714970 6.884140
11.314281 -20.425343 6.812997
-8.447257 -18.241621 6.968504
-8.531031 -17.812101 6.871467
-8.570865 -17.559942 6.813498
-8.448062 -14.919765 6.963021
-8.506592 -14.618793 6.890529
-8.592462 -14.238435 6.801849
-6.989307 -36.347649 7.176308
-6.561643 -36.342911 7.150788
-6.136673 -36.339554 7.126172
-5.850349 -36.320145 7.106920
-5.782646 -36.323669 7.182929
-5.575197 -36.342121 7.095639
-5.399366 -36.276604 7.158525
-5.085980 -36.300911 7.107371
-4.696345 -36.325287 7.093919
-4.270864 -36.324982 7.075547
-4.044284 -36.327579 7.013307
-3.836615 -36.321007 7.001883
-3.787013 -36.319702 7.108850
-3.417084 -36.332867 7.099662
-3.045673 -36.322926 7.086581
-2.675983 -36.325668 7.076565
-2.245399 -36.329647 7.065828
-1.815469 -36.336170 7.056363
-1.446767 -36.328747 7.046393
-1.077811 -36.293934 7.031715
-0.649201 -36.309830 7.026308
-0.220745 -36.324387 7.021411
0.208054 -36.332115 7.015993
0.575602 -36.328831 7.010119
1.004625 -36.330254 7.004964
1.372501 -36.329216 7.000764
6.143841 -36.325974 7.001164
6.585754 -36.327496 7.006460
6.966331 -36.330299 7.011941
7.347310 -36.327698 7.017000
7.729164 -36.322136 7.022109
8.100793 -36.264553 7.017776
8.567775 -36.335117 7.040207
9.020198 -36.330772 7.048970
9.346059 -36.332256 7.056661
9.804189 -36.332150 7.067801
10.065056 -36.324532 7.073067
10.264706 -36.330669 7.079547
10.599116 -36.341621 7.090865
10.931608 -36.340633 7.100295
11.085730 -36.189323 7.076709
-8.268466 -35.830154 7.165549
11.133914 -35.914276 7.026978
-8.212952 -35.551075 7.148541
-8.337542 -35.365440 7.091208
-8.292393 -35.083191 7.064222
-8.401735 -34.898071 7.016224
-8.341731 -34.767414 7.007179
11.013216 -31.170551 7.194654
10.973607 -30.503157 7.199350
11.106712 -30.523300 7.084554
11.086403 -30.258900 7.094729
11.076737 -29.994473 7.093705
-8.190124 -29.708048 7.171842
-8.237132 -29.489265 7.126351
11.149512 -29.576567 7.006618
-8.298518 -29.138906 7.052689
-8.289477 -28.435583 7.140705
-8.366844 -28.008656 7.061595
10.999027 -25.634556 7.177876
11.046715 -25.390259 7.120915
-8.218549 -25.124424 7.140036
11.094956 -25.152868 7.065889
-8.312643 -24.702229 7.040765
11.038240 -22.971302 7.149903
11.082592 -22.755520 7.107863
11.124605 -22.537449 7.065342
11.052904 -21.644730 7.117481
-8.260373 -21.500092 7.096578
11.146531 -21.206551 7.007223
-8.337767 -21.163733 7.009099
-8.265625 -19.123672 7.168826
-8.349601 -18.704815 7.072960
-8.280615 -15.712560 7.154657
-8.325054 -15.470277 7.094477
-8.391952 -15.166944 7.021674
-8.111910 -36.370110 7.273183
-7.869632 -36.345108 7.255109
-7.707928 -36.356823 7.220524
-7.426506 -36.349083 7.231443
-7.050258 -36.342648 7.241818
-6.668881 -36.340527 7.224084
-6.203309 -36.329235 7.201622
-8.136492 -36.050007 7.239017
10.865429 -32.165161 7.364264
10.943100 -31.672665 7.280281
10.835321 -31.272552 7.360824
10.899511 -30.950583 7.293444
-8.060855 -30.440218 7.326412
-8.103848 -30.189949 7.273428
-8.150229 -29.958075 7.224841
-8.145641 -29.362978 7.315323
-8.203005 -29.016478 7.250253
-8.239618 -28.786348 7.206999
10.829071 -26.461018 7.371116
-7.990626 -26.216177 7.399900
10.912847 -26.037785 7.271704
-8.052129 -25.945446 7.335650
-8.130301 -25.584394 7.249875
-8.097997 -24.166365 7.361059
-8.130250 -23.990740 7.323778
10.898046 -23.788086 7.310615
10.981621 -23.324566 7.219459
10.820897 -22.680912 7.380631
-8.047768 -22.408478 7.334501
10.879566 -22.414040 7.312309
-8.097398 -22.191113 7.277147
10.966993 -22.023891 7.213116
-8.164454 -21.913359 7.204538
-8.105406 -19.926874 7.354608
-8.173493 -19.588039 7.276005
-8.101459 -16.544800 7.359488
-8.201453 -16.095997 7.249102
10.707300 -33.186684 7.538965
10.764299 -32.852581 7.481830
10.817150 -32.512417 7.423659
10.712117 -31.957993 7.505397
10.772622 -31.606739 7.431095
-7.847313 -31.566666 7.564466
-7.925663 -31.204607 7.488412
-7.932981 -30.858789 7.506382
-7.962282 -30.424730 7.514926
-7.787435 -30.303116 7.536727
-8.002728 -30.180410 7.468742
-8.066178 -29.830336 7.403129
-7.846098 -29.897770 7.468316
10.683417 -27.144016 7.531815
-7.889771 -26.693430 7.514195
10.752467 -26.787840 7.447381
-7.951334 -26.407343 7.445714
-7.898373 -25.260935 7.594987
10.688883 -25.009888 7.552537
-7.952389 -24.988262 7.536932
-7.999588 -24.704830 7.475814
10.751522 -24.632595 7.477570
-8.050614 -24.437202 7.418931
10.819124 -24.277081 7.407391
10.699518 -23.228838 7.521846
-7.875270 -23.154095 7.532190
-7.947665 -22.857601 7.453756
10.773417 -22.878862 7.431148
-7.902316 -20.907145 7.583584
-7.981300 -20.560698 7.503223
-8.071657 -20.148935 7.407788
-7.900853 -17.444786 7.584363
-7.967793 -17.163080 7.514161
-8.025637 -16.872501 7.440355
10.497393 -34.649921 7.790371
10.551872 -34.279224 7.726594
10.630232 -33.727592 7.631791
10.468869 -33.266029 7.782700
10.506815 -32.997723 7.725121
10.555683 -32.768688 7.676745
10.622543 -32.414364 7.601679
-7.698321 -32.365250 7.734211
-7.777898 -31.977982 7.652258
-7.754694 -31.700499 7.757363
-7.598187 -31.531025 7.743734
-7.821429 -31.318861 7.685035
-7.662268 -31.114239 7.673399
-7.725845 -30.707222 7.604826
10.498013 -28.052183 7.747838
-7.723001 -27.492821 7.706782
10.592592 -27.594425 7.638801
-7.808942 -27.093151 7.610552
10.487690 -26.161133 7.781899
-7.770404 -25.918354 7.735825
10.531294 -25.894955 7.728647
-7.852559 -25.422398 7.628054
10.601955 -25.517838 7.653617
10.450485 -24.287010 7.796524
-7.668810 -24.005205 7.759069
-7.714294 -23.868269 7.723627
10.538118 -23.932796 7.704480
-7.785200 -23.542246 7.635804
10.619654 -23.576275 7.611695
-7.770761 -18.038956 7.735690
-7.856786 -17.692581 7.648851
10.324631 -35.778694 7.984911
10.385523 -35.405342 7.920536
10.439718 -35.017994 7.853726
10.322802 -33.998955 7.938657
10.372981 -33.754459 7.886612
-7.488717 -33.488163 7.973955
10.421506 -33.509624 7.834503
-7.570386 -33.064571 7.883523
-7.406645 -32.862621 7.969530
-7.624243 -32.790138 7.825090
-7.577321 -32.777988 7.963187
-7.624016 -32.507874 7.911654
-7.468730 -32.396843 7.890231
-7.688960 -32.097687 7.833091
-7.532502 -31.952976 7.814962
10.355300 -28.698172 7.901964
-7.522514 -28.434410 7.934778
10.399650 -28.519371 7.859508
-7.568422 -28.221382 7.883101
10.441429 -28.336584 7.815962
-7.636548 -27.909077 7.807555
10.325397 -27.103146 7.970709
-7.587659 -26.922911 7.953811
10.391024 -26.681686 7.885911
-7.681337 -26.417040 7.843993
10.441660 -26.425346 7.834746
10.332486 -24.816681 7.936243
-7.496337 -24.762123 7.963773
-7.557343 -24.513168 7.896673
10.399792 -24.509949 7.855102
-7.616020 -24.265087 7.829803
-7.537974 -22.652077 7.998732
-7.548529 -19.031780 7.991673
-7.586269 -18.830790 7.938349
-7.662277 -18.529467 7.861775
1.789153 -36.325752 8.140914
2.259776 -36.317604 8.128355
2.530535 -36.340744 8.081140
2.746860 -36.321373 8.120190
3.185218 -36.318207 8.111034
3.524899 -36.296494 8.161908
3.681771 -36.314751 8.067511
3.802097 -36.259609 8.174652
4.073612 -36.326019 8.111068
4.488134 -36.316658 8.143556
4.600329 -36.345432 8.068101
4.957181 -36.322021 8.110599
5.179757 -36.318821 8.061386
5.302351 -36.315224 8.126852
5.493110 -36.337975 8.109570
5.700541 -36.302155 8.073365
5.934594 -36.310513 8.114627
6.079156 -36.338776 8.104506
6.328206 -36.303398 8.067644
6.471122 -36.345898 8.141710
6.663506 -36.304630 8.065496
6.917140 -36.310520 8.086187
7.097893 -36.275269 8.061576
7.298002 -36.328949 8.094974
7.487410 -36.310341 8.092431
7.741055 -36.299656 8.058542
7.811545 -36.338840 8.122768
8.075374 -36.276722 8.071705
8.335865 -36.296173 8.076747
8.433675 -36.250111 8.042894
8.742241 -36.334866 8.091110
8.961348 -36.311020 8.078608
9.003855 -36.318745 8.068539
9.254134 -36.326614 8.089111
9.609823 -36.312889 8.071823
10.122841 -36.276264 8.069735
3.776868 -36.192280 8.108401
10.103240 -35.188301 8.193833
10.180207 -34.791279 8.108605
10.256143 -34.405041 8.025934
-7.351720 -34.229549 8.132947
-7.404812 -33.918144 8.065845
-7.386741 -33.903088 8.178820
-7.266566 -33.760960 8.121634
-7.488400 -33.349476 8.073155
-7.336032 -33.301865 8.043761
-7.528147 -33.045696 8.014113
-7.310253 -29.438492 8.179668
10.169897 -29.584030 8.115474
10.237053 -29.295801 8.046226
-7.384945 -29.106184 8.098762
10.283513 -29.112991 8.002641
-7.429184 -28.870401 8.040827
-7.405926 -27.854597 8.156380
10.199373 -27.782440 8.107146
-7.487807 -27.433844 8.064682
10.252613 -27.514774 8.053426
-7.524146 -27.217049 8.017009
-7.333032 -25.462133 8.154098
10.150005 -25.587116 8.140284
-7.414412 -25.103634 8.056256
10.240129 -25.191334 8.034883
-7.409588 -23.322828 8.162128
-7.471310 -22.977676 8.077407
-7.369013 -19.814486 8.196152
-7.417147 -19.619801 8.145531
-7.439893 -19.473364 8.105597
-7.475365 -19.354107 8.075641
-3.024255 -36.351418 8.395979
-2.855618 -36.344543 8.388293
-2.785850 -36.319729 8.392992
-2.475389 -36.336674 8.376634
-2.227968 -36.335442 8.394776
-2.144845 -36.328697 8.360108
-1.850817 -36.348106 8.351946
-1.747593 -36.321823 8.359520
-1.430627 -36.339573 8.355000
-1.202722 -36.311493 8.313475
-1.079172 -36.326462 8.342012
-0.844000 -36.266350 8.302675
-0.688592 -36.283150 8.315989
-0.515945 -36.352459 8.307430
-0.275577 -36.316711 8.310594
-0.016195 -36.331467 8.276558
0.184802 -36.313358 8.253708
0.314134 -36.339767 8.309286
0.558236 -36.314011 8.286141
0.649565 -36.332447 8.267891
0.950819 -36.326405 8.242138
1.073345 -36.312096 8.271738
1.390846 -36.312881 8.265316
1.479965 -36.339069 8.245589
1.763703 -36.337029 8.325210
1.812119 -36.333572 8.235641
2.127424 -36.337311 8.276081
2.393215 -36.348640 8.223404
2.633593 -36.338333 8.268255
2.954006 -36.338768 8.264280
3.365748 -36.329857 8.319427
3.731644 -36.275635 8.307992
4.171031 -36.327236 8.321904
4.605872 -36.323631 8.324123
4.980105 -36.324100 8.327661
5.355543 -36.326187 8.332310
5.732017 -36.327583 8.337546
6.110869 -36.335773 8.345094
6.615206 -36.329937 8.352484
6.996867 -36.335560 8.361213
7.376334 -36.322456 8.366399
7.760557 -36.325768 8.376136
8.142028 -36.309166 8.382055
8.533797 -36.330620 8.397552
9.946853 -36.012997 8.371534
-7.118196 -35.470577 8.399904
10.023017 -35.585621 8.279165
-7.114126 -35.171791 8.347952
-7.213383 -34.947411 8.380180
-7.266535 -34.689499 8.231826
-7.123455 -34.703896 8.281760
-7.291452 -34.502426 8.294569
-7.195417 -34.226700 8.200667
-7.338634 -34.197956 8.235644
9.972595 -30.508591 8.339773
10.018638 -30.302841 8.289830
-7.187111 -30.025425 8.323585
10.083271 -29.988676 8.213422
-7.232453 -29.769581 8.260193
-7.195563 -28.953163 8.397346
9.996044 -28.930466 8.339022
-7.238510 -28.727699 8.347716
10.049536 -28.643242 8.280963
-7.303819 -28.400148 8.276023
10.101105 -28.355740 8.222874
-7.100599 -26.791199 8.356876
9.978817 -26.314495 8.334835
-7.223539 -25.905941 8.274902
10.059249 -25.995770 8.249800
-7.276247 -23.892181 8.298957
-7.349555 -23.556526 8.217566
-6.951717 -36.225330 8.561569
-6.662666 -36.340187 8.560903
-6.330423 -36.362907 8.538603
-6.153003 -36.330406 8.568563
-5.910100 -36.342812 8.525450
-5.713064 -36.338516 8.532556
-5.481563 -36.325459 8.548997
-5.383821 -36.288383 8.490363
-5.071776 -36.316032 8.507477
-4.866677 -36.338409 8.490971
-4.642645 -36.329399 8.476838
-4.515831 -36.336224 8.473352
-4.235086 -36.328060 8.458676
-3.908896 -36.337334 8.443199
-3.759059 -36.328682 8.444983
-3.435780 -36.327583 8.430527
-3.359903 -36.345589 8.408014
-3.044008 -36.324039 8.412459
-2.659056 -36.330364 8.406229
8.986524 -36.326046 8.409823
9.378922 -36.332035 8.423439
9.710292 -36.346897 8.437728
9.836310 -36.326923 8.437589
-7.024668 -36.019558 8.587021
-7.070776 -35.757996 8.499783
-6.974617 -35.682056 8.448127
-7.137695 -35.414330 8.470596
9.785175 -31.362415 8.548094
-6.946701 -31.106419 8.589032
9.834202 -31.149462 8.496130
9.906154 -30.833431 8.419141
-7.027565 -30.733494 8.497121
-7.109102 -30.380596 8.410687
9.810669 -29.985611 8.553227
-7.042942 -29.770067 8.578053
9.895699 -29.541073 8.463027
-7.128994 -29.293482 8.472254
9.945963 -29.233158 8.400447
-6.977701 -27.495396 8.498573
-7.040251 -27.143108 8.427715
-6.954881 -27.055227 8.591190
9.798051 -27.071156 8.538790
-7.047161 -26.663565 8.483117
9.882344 -26.739271 8.449519
-7.113385 -26.371380 8.402502
-7.075766 -24.873755 8.540235
-7.165751 -24.413898 8.426450
-6.900545 -36.346500 8.645763
-6.684019 -36.335922 8.628998
-6.470098 -36.332432 8.614050
9.668061 -31.932711 8.688395
-6.808952 -31.748747 8.747845
-6.864488 -31.487738 8.683214
9.741182 -31.596029 8.605700
-6.880594 -30.612341 8.764876
9.676968 -30.778996 8.715017
9.728226 -30.449749 8.647715
-6.926362 -30.363592 8.709414
-6.974773 -30.127943 8.657380
-6.718235 -28.968605 8.795795
-6.783575 -28.585835 8.718331
-6.881608 -28.034317 8.607097
9.585984 -27.951208 8.778028
9.630679 -27.775490 8.730248
-6.831609 -27.541773 8.725219
9.693419 -27.505840 8.656696
-6.904144 -27.240290 8.641784
-6.872417 -25.786331 8.764742
-6.932425 -25.502041 8.694228
-6.997047 -25.236132 8.629350
-6.891734 -21.875435 8.746388
-6.978426 -21.500263 8.644938
9.438630 -32.971699 8.944570
-6.607322 -32.692970 8.982308
9.494059 -32.747189 8.889339
-6.696194 -32.286972 8.881495
9.568718 -32.391300 8.801341
-6.754063 -32.020798 8.815492
9.439819 -32.059910 8.976824
9.500984 -31.735836 8.910488
9.587864 -31.247375 8.810556
-6.784690 -31.111116 8.875972
-6.828722 -30.846621 8.816441
-6.580007 -29.733841 8.950451
-6.651262 -29.355499 8.874119
9.478800 -28.418829 8.906415
-6.630198 -28.369749 8.955137
9.539100 -28.123674 8.824798
-6.730349 -27.942419 8.835994
-6.747538 -26.365662 8.908768
-6.834139 -25.984932 8.814504
9.478504 -25.193401 8.985187
9.527273 -24.942574 8.926810
9.570433 -24.680874 8.865676
-6.707881 -22.640690 8.953926
-6.782100 -22.329966 8.869362
9.226665 -33.957458 9.189482
9.306194 -33.578033 9.094958
-6.453967 -33.384857 9.154411
9.388238 -33.219013 9.006005
-6.516788 -33.108376 9.085661
9.289341 -32.909874 9.151390
-6.501868 -32.530853 9.193084
9.381317 -32.399700 9.046575
-6.582794 -32.139183 9.105585
-6.654570 -31.730921 9.013566
-6.365482 -30.940781 9.195186
-6.437722 -30.528896 9.111531
-6.509005 -30.125648 9.029740
-6.472431 -29.022726 9.137506
9.294649 -29.174194 9.114245
-6.550149 -28.683489 9.042324
9.388739 -28.795462 9.009971
-6.529084 -27.368916 9.159581
-6.577194 -27.173582 9.111147
-6.643602 -26.871073 9.035484
9.318281 -25.933243 9.157242
9.421215 -25.424892 9.038653
-6.513305 -23.439283 9.172380
-6.574298 -23.200165 9.107097
-6.637608 -22.971655 9.045515
9.056847 -34.718166 9.379188
-6.261968 -34.253578 9.371307
9.170533 -34.206779 9.251544
-6.327624 -33.962822 9.298705
-6.391389 -33.672031 9.226073
9.073944 -33.787045 9.346438
9.193832 -33.422863 9.256891
-6.392842 -33.068760 9.313700
-6.211198 -31.755325 9.360225
-6.290432 -31.352032 9.278629
-6.248805 -29.923096 9.389821
9.099190 -29.954124 9.330013
-6.333268 -29.574755 9.291867
9.197479 -29.558062 9.220191
-6.386970 -29.339722 9.225661
-6.320798 -28.320778 9.399352
-6.388019 -27.987211 9.314550
-6.457128 -27.669872 9.234597
9.134087 -26.856972 9.373723
9.242062 -26.330051 9.250216
-6.435012 -23.776501 9.265769
3.016621 -36.281681 9.588964
3.215998 -36.272663 9.580825
3.614257 -36.264912 9.567719
3.946268 -36.268421 9.559773
4.145531 -36.278843 9.557375
4.477636 -36.282753 9.550478
4.809920 -36.287498 9.544294
5.075374 -36.276463 9.536089
5.341405 -36.279697 9.531757
5.740568 -36.280975 9.525032
5.939476 -36.266834 9.518305
6.273062 -36.275845 9.515636
6.739613 -36.271877 9.508625
7.139898 -36.266457 9.502988
7.608418 -36.267620 9.499271
8.075288 -36.245789 9.490914
8.480564 -36.263031 9.493473
8.751586 -36.275944 9.495936
9.021193 -36.273640 9.495036
8.881737 -35.515690 9.579067
8.943854 -35.257935 9.514596
8.966081 -34.919144 9.498825
-6.163498 -34.711029 9.486004
8.825974 -34.744141 9.566624
9.001789 -34.500053 9.479194
8.919535 -34.254333 9.461268
-6.197842 -34.055168 9.536093
9.064049 -34.126602 9.401961
-6.254586 -33.768566 9.471375
-6.313176 -33.495358 9.410112
-6.056098 -32.624165 9.537128
-6.073193 -30.634766 9.590346
8.895453 -30.772697 9.558130
-6.160682 -30.268021 9.486680
9.000600 -30.365818 9.444778
-6.146829 -29.081825 9.591548
-6.221658 -28.750320 9.507611
8.994854 -27.530376 9.532022
9.054672 -27.269329 9.470791
-6.163127 -24.900673 9.578172
-6.228211 -24.636072 9.504414
-6.309053 -24.279045 9.404428
-3.756026 -36.331310 9.797726
-3.384300 -36.335796 9.784378
-3.011578 -36.321095 9.766773
-2.641670 -36.332790 9.757124
-2.209469 -36.328632 9.742248
-1.806743 -36.311291 9.799170
-1.690465 -36.315792 9.757889
-1.409001 -36.329533 9.720029
-1.107075 -36.301224 9.733511
-0.663896 -36.283806 9.713482
-0.321111 -36.303822 9.722722
-0.179963 -36.321999 9.691487
0.015045 -36.298615 9.706017
0.233656 -36.306499 9.689856
0.551010 -36.296150 9.682045
0.618336 -36.326050 9.680509
1.033699 -36.306580 9.668026
1.418188 -36.313263 9.660337
1.785877 -36.319653 9.668386
1.819155 -36.293499 9.631607
2.284486 -36.310688 9.641020
2.699743 -36.312767 9.634809
2.957688 -36.327717 9.668767
3.390178 -36.323013 9.669078
3.756465 -36.268936 9.656947
4.197347 -36.328571 9.676599
4.633080 -36.327393 9.681195
5.008410 -36.332066 9.687630
5.383818 -36.329792 9.693098
5.760048 -36.326164 9.699093
6.137420 -36.322498 9.705972
6.644078 -36.326389 9.718897
7.025336 -36.327515 9.729170
7.409633 -36.336040 9.742350
7.791433 -36.324715 9.751130
8.165895 -36.274212 9.750308
8.502173 -36.334427 9.777815
8.696004 -36.332561 9.784424
8.765074 -36.082581 9.721952
8.728252 -35.992203 9.788247
-5.920715 -35.799675 9.759271
8.634650 -35.764858 9.786430
8.812273 -35.709137 9.680698
-5.992280 -35.486271 9.680573
8.728833 -35.231407 9.671536
8.869562 -35.245159 9.633412
-6.024355 -34.945232 9.737820
-6.085452 -34.653759 9.671999
-6.145668 -34.366035 9.607103
-5.897414 -33.537827 9.723742
-5.978924 -33.084766 9.631313
8.711341 -31.528061 9.770163
-5.918947 -31.240559 9.761366
8.793324 -31.208324 9.680498
-5.980054 -30.988745 9.689996
-6.023694 -29.664633 9.740408
