# This PCD file was generated using the MATLAB® pcwrite function
# from Computer Vision Toolbox®.
# .PCD v.7 - Point Cloud Data file format
VERSION .7
FIELDS x y z
SIZE 4 4 4
TYPE F F F
COUNT 1 1 1
WIDTH 1566
HEIGHT 1
VIEWPOINT 0 0 0 1 0 0 0
POINTS 1566
DATA ascii
-6.650665 -0.997573 -0.512585
-5.655741 -0.871914 -0.522171
-3.857763 -0.947934 -0.573520
-3.166035 -0.926455 -0.565178
-2.641803 -0.872949 -0.561567
-2.165374 -0.895846 -0.551406
-1.675146 -0.920354 -0.545058
-29.925915 -0.682647 -0.527944
-28.816553 -0.771782 -0.484153
-24.046650 -0.649676 -0.411585
-6.654835 -0.684808 -0.506002
-6.422882 -0.731907 -0.521536
-5.288419 -0.633754 -0.471698
-5.027491 -0.730069 -0.584459
-3.929290 -0.787337 -0.576803
-3.306899 -0.665596 -0.567447
-2.878753 -0.630730 -0.565423
-2.217733 -0.675705 -0.554697
-1.751693 -0.674687 -0.546770
-30.478193 -0.538399 -0.563720
-30.024395 -0.432284 -0.538728
-28.854836 -0.574692 -0.493112
-24.118847 -0.551828 -0.416922
-20.413780 -0.590199 -0.423464
-5.093301 -0.449512 -0.590761
-4.040535 -0.535715 -0.575682
-3.895170 -0.400716 -0.584597
-3.405391 -0.452708 -0.572290
-2.884620 -0.517727 -0.566963
-1.811271 -0.461663 -0.554581
-31.047678 -0.387979 -0.596928
-30.582928 -0.271564 -0.580477
-29.021566 -0.320682 -0.512880
-24.206257 -0.336582 -0.425070
-20.934675 -0.379903 -0.444694
-20.524525 -0.302953 -0.425980
-6.205408 -0.365981 -0.528944
-5.851246 -0.307857 -0.551732
-5.227956 -0.201313 -0.479947
-4.849401 -0.262795 -0.504712
-4.137712 -0.237664 -0.585330
-2.948895 -0.349680 -0.571253
-2.276961 -0.362205 -0.564051
-30.682999 -0.035189 -0.577133
-29.175365 -0.095055 -0.531258
-24.385000 -0.014878 -0.440460
-21.043297 -0.110170 -0.448268
-20.572063 -0.192591 -0.427314
-6.092175 -0.138667 -0.532656
-5.817217 -0.089809 -0.550794
-5.144670 -0.164662 -0.598416
-4.827018 -0.156891 -0.507492
-3.532540 -0.125132 -0.583546
-3.082982 -0.079362 -0.579007
-2.931767 -0.171665 -0.579408
-1.864630 -0.044255 -0.568542
-30.750111 0.135283 -0.584837
-29.338051 0.156812 -0.551581
-21.131474 0.089354 -0.451571
-5.609501 0.169364 -0.561685
-5.194648 0.020162 -0.484587
-4.793936 0.063140 -0.512523
-4.182309 0.021115 -0.590517
-3.914513 0.017839 -0.598892
-3.380029 0.166195 -0.589823
-2.306421 0.055315 -0.578560
-29.488371 0.380976 -0.570474
-24.496578 0.203455 -0.450758
-21.255245 0.389207 -0.456785
-2.938031 0.201328 -0.593627
-1.845036 0.347712 -0.582817
-29.617266 0.586938 -0.587503
-29.512972 0.552945 -0.580337
-29.098902 0.475489 -0.560475
-28.643457 0.590276 -0.542120
-28.249222 0.502789 -0.525070
-27.934954 0.534755 -0.513287
-27.299599 0.571666 -0.491036
-24.619102 0.467290 -0.463053
-21.729160 0.500756 -0.480208
-5.457383 0.479794 -0.568803
-5.123761 0.463684 -0.593731
-4.730822 0.409534 -0.521633
-3.201247 0.518133 -0.599271
-2.277403 0.444084 -0.593251
-29.892805 0.662167 -0.599922
-29.390007 0.788334 -0.577268
-28.996193 0.703287 -0.558523
-28.151707 0.711567 -0.523726
-27.714777 0.706750 -0.507280
-27.335882 0.638520 -0.493162
-27.010122 0.618446 -0.482081
-26.829039 0.774420 -0.478450
-26.458469 0.762501 -0.467207
-26.180574 0.726925 -0.458898
-24.727936 0.716000 -0.474575
-21.376507 0.659413 -0.462441
-5.380259 0.627561 -0.572821
-4.616765 0.795135 -0.535596
-29.755430 0.866863 -0.595453
-28.404032 0.822419 -0.534963
-27.926014 0.831223 -0.516530
-27.220272 0.815263 -0.491506
-25.974556 0.903981 -0.455989
-24.836151 0.957623 -0.486449
-21.927238 0.849397 -0.490924
-26.719973 1.001568 -0.478125
-26.310444 1.000917 -0.466374
-25.824955 1.192793 -0.456407
-25.493378 1.133899 -0.447665
-25.164902 1.095609 -0.439815
-22.043562 1.124260 -0.497927
-4.535431 1.092545 -0.546459
-4.089190 1.005900 -0.578006
-25.013361 1.349748 -0.440848
-24.969826 1.264899 -0.501787
-22.134270 1.337535 -0.503874
-3.973950 1.392197 -0.594258
-25.527222 1.427342 -0.452911
-25.246319 1.485523 -0.447777
-25.053848 1.461297 -0.511890
-6.655802 1.563199 -0.406860
-25.200520 1.780345 -0.529555
-24.797091 1.666579 -0.442003
-24.497673 1.665453 -0.436784
-22.261555 1.647303 -0.512876
-13.200698 1.778592 -0.427382
-12.939657 1.792978 -0.426191
-12.572844 1.762419 -0.429714
-12.342288 1.773548 -0.431158
-12.021494 1.780868 -0.435602
-11.747406 1.776184 -0.441312
-6.721339 1.780448 -0.411518
-25.037703 1.816934 -0.449004
-24.269552 1.960112 -0.438616
-22.359385 1.875592 -0.520203
-14.053554 1.924523 -0.427927
-13.855608 1.911759 -0.425414
-13.438766 1.834247 -0.425331
-13.241673 1.864231 -0.421986
-11.771119 1.816289 -0.438091
-11.482845 1.850775 -0.443267
-11.204093 1.865231 -0.450612
-11.139393 1.917958 -0.449360
-10.906262 1.975140 -0.454350
-25.295004 2.020814 -0.542288
-24.586828 2.038229 -0.444857
-22.473698 2.139050 -0.529382
-14.675796 2.138896 -0.430688
-14.308094 2.011525 -0.428227
-14.117118 2.020230 -0.423352
-10.617058 2.069382 -0.460123
-10.412683 2.112896 -0.466961
-6.822913 2.178628 -0.421399
-6.786326 2.024368 -0.417367
-6.412922 2.059392 -0.441355
-25.419666 2.293742 -0.558467
-24.496586 2.280652 -0.447757
-24.093136 2.253910 -0.441616
-23.777172 2.268506 -0.438005
-15.058001 2.298711 -0.434660
-11.584780 2.307718 -0.405391
-10.075104 2.273383 -0.474483
-9.867905 2.333418 -0.482570
-25.529608 2.547297 -0.573516
-24.271368 2.453783 -0.447734
-23.913687 2.554590 -0.445291
-23.659317 2.558398 -0.442662
-22.610023 2.458358 -0.541018
-15.459612 2.451004 -0.442895
-11.299376 2.456328 -0.412901
-11.071657 2.529346 -0.421727
-9.602369 2.480921 -0.490425
-6.527130 2.547004 -0.454892
-24.027220 2.687259 -0.449160
-23.871742 2.713203 -0.447997
-22.700748 2.669730 -0.549274
-17.475931 2.777703 -0.407392
-15.801162 2.626688 -0.450394
-15.742908 2.669722 -0.445441
-11.059099 2.633393 -0.418454
-10.812953 2.715579 -0.429359
-9.245173 2.700510 -0.502430
-9.027987 2.769658 -0.514613
-25.649105 2.813847 -0.590227
-23.798557 2.940478 -0.451805
-23.538471 2.976590 -0.450204
-23.186626 2.901684 -0.445892
-17.812965 2.978240 -0.419294
-17.536339 2.888614 -0.407074
-16.111830 2.879883 -0.455342
-10.518513 2.934071 -0.439569
-8.860821 2.946024 -0.518661
-6.599712 2.896126 -0.465546
-6.153903 2.890181 -0.493554
-23.797859 3.038771 -0.453829
-22.837475 3.020971 -0.504979
-22.434122 3.131124 -0.447681
-17.856083 3.097425 -0.418432
-16.444082 3.122214 -0.464907
-10.323055 3.037885 -0.448877
-8.530785 3.195992 -0.534100
-6.648959 3.104854 -0.471698
-23.555824 3.343184 -0.458238
-23.270393 3.213148 -0.453434
-22.884310 3.221997 -0.511901
-22.452353 3.290890 -0.451677
-18.144451 3.318556 -0.429938
-16.728838 3.284989 -0.476973
-10.094061 3.234544 -0.458770
-6.230283 3.232288 -0.504389
-23.215122 3.503906 -0.459662
-23.036350 3.462397 -0.583343
-22.854204 3.506379 -0.458128
-22.466576 3.484194 -0.456536
-22.053137 3.525044 -0.457243
-16.734154 3.413763 -0.473102
-9.781096 3.517014 -0.474153
-8.213697 3.477623 -0.550337
-6.293304 3.500591 -0.512903
-22.873558 3.750981 -0.464114
-22.279829 3.739168 -0.463021
-22.056852 3.653127 -0.460641
-18.454842 3.606435 -0.443705
-17.031487 3.668135 -0.485804
-12.631782 3.779771 -0.458678
-12.387422 3.763604 -0.460571
-12.078615 3.768135 -0.463851
-11.824739 3.776394 -0.467909
-9.579842 3.607657 -0.487643
-7.983291 3.750116 -0.561791
-6.346917 3.741848 -0.520980
-22.499912 3.946172 -0.468374
-21.637604 3.857841 -0.466983
-20.700247 3.826825 -0.414285
-18.765884 3.935295 -0.459802
-17.317905 3.976299 -0.499218
-13.498697 3.938066 -0.458107
-13.308118 3.895589 -0.456638
-13.014909 3.830955 -0.457113
-11.811066 3.809498 -0.464880
-11.541648 3.832925 -0.471046
-11.263647 3.897750 -0.475206
-11.008046 3.957872 -0.482207
-9.483253 3.842998 -0.490314
-7.785439 3.832179 -0.578642
-5.948158 3.990695 -0.559950
-22.505196 4.073118 -0.471684
-22.103138 4.113030 -0.473063
-21.658421 4.039532 -0.472109
-21.072586 4.125155 -0.430340
-13.827367 4.048256 -0.460327
-11.190128 4.039536 -0.404996
-10.714834 4.058654 -0.489395
-10.490091 4.139781 -0.497242
-9.211268 4.121341 -0.508359
-7.639266 4.045070 -0.587059
-6.416530 4.081087 -0.533033
-5.986747 4.148634 -0.565401
-22.131649 4.380351 -0.480415
-21.696308 4.387694 -0.482095
-21.306370 4.359508 -0.464718
-19.008608 4.250105 -0.474041
-17.583452 4.302492 -0.513720
-14.208463 4.210931 -0.464833
-13.968943 4.399586 -0.427479
-11.285144 4.334641 -0.416515
-10.136853 4.322983 -0.508648
-6.029778 4.332761 -0.572022
-22.147535 4.476141 -0.483068
-21.664442 4.476327 -0.464001
-21.263224 4.599224 -0.490889
-19.242876 4.526483 -0.490335
-17.677334 4.479504 -0.518611
-15.222017 4.581664 -0.433444
-14.825620 4.480566 -0.429582
-14.557518 4.415991 -0.449520
-14.343384 4.419727 -0.426731
-13.955135 4.427636 -0.401796
-13.736292 4.476349 -0.419399
-13.434818 4.430180 -0.431040
-13.099351 4.471494 -0.436092
-12.836466 4.522902 -0.440936
-12.705420 4.524982 -0.446025
-9.919877 4.452363 -0.516660
-9.747787 4.564673 -0.524265
-8.957432 4.437008 -0.526783
-6.085919 4.573468 -0.580843
-21.848053 4.767804 -0.474610
-21.744843 4.772781 -0.493338
-19.341223 4.750541 -0.497394
-17.784395 4.694568 -0.525208
-15.618397 4.748976 -0.437654
-14.894015 4.620565 -0.479050
-13.808907 4.655640 -0.407476
-13.584732 4.783530 -0.419604
-12.804478 4.728392 -0.423563
-12.554126 4.615658 -0.445992
-12.287836 4.722153 -0.451652
-11.383828 4.627041 -0.427925
-8.697350 4.752953 -0.548651
-21.756584 4.891927 -0.496891
-21.288588 4.804630 -0.497190
-20.795925 4.852473 -0.502813
-15.970324 4.909178 -0.445636
-15.207320 4.870605 -0.488722
-13.461263 4.842954 -0.409164
-13.171910 4.990141 -0.475292
-12.823957 4.855550 -0.450765
-12.600456 4.873269 -0.474149
-12.294146 4.841927 -0.477521
-12.035183 4.826276 -0.469209
-11.743797 4.925314 -0.476190
-11.455042 4.879028 -0.462323
-9.434811 4.805429 -0.539047
-6.159645 4.868269 -0.591632
-22.317295 5.136387 -0.509171
-22.072926 5.100480 -0.489901
-21.322601 5.081306 -0.505841
-20.817772 5.011522 -0.507975
-19.506411 5.008791 -0.511348
-18.056713 5.014151 -0.546748
-16.318653 5.099387 -0.456011
-15.497631 5.159307 -0.499545
-13.553900 5.129148 -0.449093
-13.292212 5.111068 -0.436402
-12.937627 5.101585 -0.438243
-11.553702 5.110437 -0.463406
-11.136054 5.010031 -0.496502
-10.897998 5.097935 -0.502564
-10.677578 5.197691 -0.510083
-9.127485 5.082920 -0.556375
-8.451235 5.077874 -0.572028
-22.459345 5.380751 -0.521010
-22.148254 5.238827 -0.495344
-21.358719 5.354200 -0.514471
-20.878601 5.378514 -0.519989
-19.724375 5.245489 -0.531429
-18.197876 5.262647 -0.559041
-16.648111 5.320348 -0.468158
-13.923124 5.323585 -0.483850
-13.578682 5.203011 -0.423263
-13.026733 5.375984 -0.449484
-11.658442 5.389183 -0.458070
-11.326666 5.236097 -0.486343
-8.841635 5.368363 -0.576586
-21.361458 5.421851 -0.516695
-19.829655 5.491484 -0.542794
-18.280937 5.477731 -0.567297
-16.947891 5.587591 -0.480400
-15.764576 5.469189 -0.512524
-14.255101 5.541455 -0.492397
-13.007580 5.478828 -0.455703
-12.757656 5.588187 -0.485514
-12.364532 5.525954 -0.486496
-11.817829 5.537496 -0.492608
-11.041450 5.568262 -0.490155
-10.993469 5.504045 -0.502332
-10.300357 5.414902 -0.524507
-10.101959 5.577786 -0.531020
-8.275199 5.422462 -0.590870
-22.609266 5.609645 -0.534343
-20.406162 5.676743 -0.536384
-19.948204 5.778474 -0.557203
-18.421293 5.799878 -0.582950
-17.158602 5.788731 -0.491337
-15.926487 5.655557 -0.522993
-14.612876 5.767676 -0.459847
-14.405190 5.731354 -0.457847
-14.188641 5.702960 -0.457815
-13.744513 5.688950 -0.459420
-13.499712 5.697313 -0.462220
-13.251938 5.749082 -0.476482
-13.104122 5.652788 -0.472669
-12.159426 5.749113 -0.491189
-11.749232 5.651599 -0.468928
-11.318846 5.642344 -0.503035
-11.108895 5.757331 -0.498209
-10.812658 5.620203 -0.514687
-9.944466 5.680371 -0.542059
-8.573390 5.662014 -0.599825
-22.759466 5.856499 -0.549289
-20.948338 5.821981 -0.534906
-17.280455 5.946391 -0.497564
-16.024473 5.856373 -0.527998
-14.999783 5.880738 -0.463990
-14.563757 5.810442 -0.502367
-13.519744 5.889280 -0.492202
-13.236167 5.894990 -0.469950
-12.875769 5.818313 -0.471177
-12.683409 5.910917 -0.478585
-11.886165 5.934763 -0.487621
-11.598378 5.804786 -0.499572
-11.125525 5.985690 -0.510892
-10.740870 5.834506 -0.519534
-9.659233 5.941459 -0.560247
-22.897394 6.087867 -0.563882
-21.011894 6.157412 -0.546338
-20.982895 6.069119 -0.543454
-20.474255 6.046410 -0.549471
-20.043692 6.064522 -0.570802
-18.594885 6.125070 -0.458875
-18.395222 6.106153 -0.584049
-18.198273 6.057549 -0.452283
-17.796043 6.026828 -0.448261
-17.393114 6.046884 -0.446122
-17.081642 6.085205 -0.446330
-16.862957 6.133131 -0.447162
-16.242161 6.193555 -0.546528
-15.367159 6.034713 -0.470917
-14.839056 6.109791 -0.514885
-13.853688 6.117258 -0.499900
-13.322623 6.148928 -0.480740
-12.880911 6.112770 -0.493710
-12.706259 6.073843 -0.481445
-12.442398 6.007276 -0.488461
-12.172438 6.139542 -0.492032
-11.325298 6.118352 -0.510813
-10.462948 6.083807 -0.534848
-24.938499 6.231294 -0.594706
-24.524689 6.237680 -0.578717
-24.054585 6.295723 -0.562906
-23.745899 6.352388 -0.554111
-22.938652 6.329274 -0.570643
-20.049011 6.277554 -0.575361
-19.357315 6.350141 -0.480400
-19.034197 6.287664 -0.466924
-18.978754 6.218924 -0.468404
-17.526550 6.258215 -0.514027
-16.638794 6.247774 -0.445764
-16.532600 6.225076 -0.450393
-16.251255 6.322821 -0.454550
-15.718641 6.228597 -0.480908
-14.111010 6.342144 -0.509143
-13.288382 6.295637 -0.499791
-12.553689 6.204452 -0.495104
-11.888923 6.319230 -0.503316
-11.309520 6.276840 -0.520304
-10.904011 6.324663 -0.524340
-10.185524 6.315823 -0.549491
-9.392165 6.236550 -0.581690
-23.530609 6.411953 -0.548610
-23.226366 6.421691 -0.543920
-22.791525 6.465083 -0.539195
-22.554636 6.509313 -0.537464
-22.305393 6.583602 -0.536484
-20.541393 6.403157 -0.562349
-20.122105 6.597657 -0.590124
-19.693811 6.521833 -0.492529
-19.380859 6.408716 -0.478657
-17.720514 6.519818 -0.529905
-16.347929 6.438673 -0.556310
-16.029039 6.445606 -0.470187
-15.804788 6.507054 -0.465709
-15.733287 6.580405 -0.466089
-15.068389 6.437986 -0.528249
-14.629119 6.574533 -0.480219
-14.254682 6.493562 -0.495493
-14.061966 6.472518 -0.475935
-13.693331 6.497505 -0.491219
-13.455383 6.460441 -0.493029
-13.189558 6.544548 -0.483870
-12.399571 6.564759 -0.512960
-11.720006 6.445429 -0.511498
-11.406572 6.526701 -0.531177
-10.558106 6.571672 -0.542425
-10.155815 6.429565 -0.561796
-24.932713 6.721239 -0.599430
-23.086807 6.668732 -0.590267
-21.991432 6.668652 -0.536733
-21.756104 6.774368 -0.537639
-20.595852 6.679098 -0.572508
-20.067392 6.664783 -0.580815
-19.980993 6.698956 -0.504872
-17.832840 6.714889 -0.540268
-16.435165 6.680508 -0.566603
-16.278858 6.682264 -0.503302
-15.523518 6.722622 -0.472060
-15.207068 6.637797 -0.540068
-15.074125 6.662204 -0.508745
-14.413768 6.714087 -0.524172
-13.870610 6.791331 -0.516547
-13.564826 6.788203 -0.507844
-12.917643 6.695023 -0.510047
-12.613490 6.751092 -0.499054
-11.472746 6.670902 -0.524968
-9.928146 6.690289 -0.576578
-24.747044 6.803609 -0.593023
-24.437160 6.866492 -0.585674
-24.107271 6.969392 -0.578783
-21.473795 6.902862 -0.540171
-20.639147 6.909966 -0.581203
-20.121538 6.860087 -0.550680
-16.467285 6.910357 -0.545024
-15.321682 6.890696 -0.508371
-13.960893 6.990507 -0.488461
-13.618953 6.925644 -0.513745
-13.577868 6.996260 -0.491173
-12.402348 6.865886 -0.506628
-12.237786 6.956335 -0.534613
-11.519170 6.834070 -0.545078
-11.191515 6.978388 -0.544117
-10.272717 6.857872 -0.563071
-9.684563 6.932985 -0.592073
-23.896198 7.052473 -0.575267
-23.618052 7.180207 -0.571778
-21.225113 7.049529 -0.543404
-20.992773 7.170794 -0.547878
-20.666943 7.069088 -0.587309
-20.443731 7.067737 -0.529652
-17.976082 7.015009 -0.555678
-16.621572 7.098100 -0.523722
-15.685313 7.169114 -0.508027
-15.042067 7.108555 -0.491244
-14.691354 7.131026 -0.517266
-14.450372 7.068307 -0.490871
-14.248617 7.024534 -0.488413
-14.117809 7.137455 -0.531523
-13.345688 7.036237 -0.493513
-13.085613 7.151764 -0.524162
-12.158753 7.035307 -0.517450
-11.602944 7.066324 -0.555817
-10.043250 7.185277 -0.585247
-23.369635 7.299219 -0.569823
-23.111507 7.356046 -0.570340
-20.719276 7.322762 -0.550479
-20.588812 7.266699 -0.536702
-18.063189 7.282087 -0.566747
-16.825859 7.379395 -0.541373
-16.583529 7.248910 -0.591165
-15.888655 7.369318 -0.518194
-15.420895 7.206840 -0.561793
-15.118937 7.374799 -0.505802
-14.860229 7.270220 -0.500877
-14.482031 7.344861 -0.545670
-12.782740 7.231508 -0.508034
-12.572591 7.348592 -0.516491
-12.110566 7.333157 -0.555512
-11.845387 7.319283 -0.534432
-11.713775 7.358598 -0.569413
-10.944265 7.294346 -0.566734
27.895163 7.202166 -0.526394
-22.799934 7.462879 -0.571826
-20.824598 7.432276 -0.556595
-20.568577 7.483457 -0.558776
-18.705688 7.591165 -0.510743
-18.315695 7.500310 -0.501020
-18.150877 7.538391 -0.580675
-17.920959 7.451396 -0.495479
-17.626745 7.442512 -0.493678
-17.417068 7.461781 -0.492919
-17.077047 7.520349 -0.494136
-16.933468 7.583306 -0.552011
-16.024029 7.533204 -0.526598
-15.489942 7.451118 -0.573389
-15.359282 7.560424 -0.514547
-14.804678 7.569127 -0.562344
-14.686566 7.478365 -0.510935
-13.234393 7.512016 -0.562453
-12.296480 7.561226 -0.529464
-11.677337 7.511753 -0.545572
-22.567757 7.603785 -0.573857
-22.287794 7.734649 -0.578030
-21.020559 7.681669 -0.572572
-20.343071 7.750147 -0.566839
-19.041828 7.726519 -0.520757
-16.734276 7.619110 -0.497497
-16.509474 7.705027 -0.501601
-15.523375 7.708276 -0.553568
-14.445021 7.793819 -0.527971
-14.327588 7.630522 -0.552563
-13.318853 7.707828 -0.571297
-12.003758 7.716535 -0.577314
-11.796657 7.632428 -0.583220
-11.546104 7.659355 -0.558818
-10.733366 7.634164 -0.591132
-22.078188 7.900726 -0.582199
-21.174675 7.935752 -0.586908
-20.051554 7.925750 -0.578763
-19.450447 7.951360 -0.537983
-19.216896 7.820655 -0.526658
-18.197544 7.803205 -0.591144
-17.042267 7.872873 -0.564878
-16.229931 7.850517 -0.524984
-16.007208 7.992943 -0.514680
-15.718866 7.963197 -0.535994
-14.864573 7.841064 -0.574787
-14.361346 7.929765 -0.552609
-13.365463 7.857227 -0.578808
-12.005826 7.861142 -0.548890
-11.857172 7.858994 -0.595240
-11.354301 7.967364 -0.578997
-21.880018 8.072035 -0.587051
-20.094429 8.092957 -0.578165
-19.937519 8.129036 -0.585134
-17.122375 8.130529 -0.577275
-16.356800 8.090125 -0.555718
-15.803990 8.148195 -0.522809
-15.570059 8.007839 -0.599317
-14.889166 8.128139 -0.588328
-14.196900 8.188729 -0.550536
-13.463758 8.102463 -0.590501
-11.777918 8.179134 -0.571563
-21.681639 8.234589 -0.593376
-19.952879 8.358908 -0.566790
-19.787266 8.211191 -0.555964
-18.543037 8.382045 -0.535102
-18.148886 8.289536 -0.525765
-17.759747 8.258450 -0.520997
-17.541321 8.268901 -0.519389
-17.324224 8.296705 -0.520215
-17.193642 8.385834 -0.592483
-16.453003 8.337048 -0.569625
-15.892146 8.241747 -0.551223
-15.550787 8.374989 -0.535259
-14.427109 8.243530 -0.582556
-11.685313 8.303484 -0.585502
-20.151503 8.568439 -0.582796
-19.807747 8.407320 -0.594075
-19.688593 8.412914 -0.599717
-18.857306 8.509491 -0.545171
-16.903666 8.409828 -0.524334
-15.993506 8.483544 -0.563365
-15.391134 8.549438 -0.544889
-14.652952 8.456207 -0.597779
-14.022678 8.560172 -0.571086
-11.601770 8.547537 -0.596802
-19.280455 8.774756 -0.564742
-19.039509 8.606495 -0.552707
-18.081936 8.788246 -0.545858
-17.634230 8.793112 -0.537668
-16.831865 8.728012 -0.533682
-16.489563 8.623297 -0.559831
-16.207207 8.791230 -0.543514
-16.078474 8.757754 -0.578444
-20.311945 8.812265 -0.595357
-18.432810 8.898125 -0.550758
-18.040051 8.808475 -0.541566
-17.212519 8.860838 -0.539153
-16.575804 8.900398 -0.599536
-16.020306 8.962532 -0.552379
-15.199644 8.807721 -0.559047
-13.884982 8.929457 -0.592509
-19.538345 9.013632 -0.579489
-18.811573 9.070700 -0.564437
-16.728661 9.060274 -0.547917
-16.129068 9.090195 -0.596429
-14.989235 9.163965 -0.579371
-19.525913 9.323942 -0.597039
-19.161968 9.317700 -0.584020
-16.483011 9.216958 -0.556186
-15.770362 9.237926 -0.567669
-19.326313 9.460107 -0.596827
-16.236656 9.421523 -0.571021
-15.623754 9.411045 -0.581595
-14.874381 9.403996 -0.593922
-16.045811 9.614470 -0.585616
10.720290 9.900360 -0.496430
10.349907 10.142202 -0.555844
10.570400 10.009029 -0.424361
10.044294 10.337621 -0.554627
10.203072 10.257141 -0.446203
9.912654 10.462791 -0.530727
11.338011 10.532663 -0.444684
11.452631 10.479384 -0.445246
9.536697 10.668325 -0.482329
9.636442 10.613981 -0.576274
11.012412 10.761158 -0.444655
11.237852 10.608756 -0.444833
9.098640 10.978789 -0.509918
9.281257 10.853887 -0.546885
10.768305 10.924064 -0.444329
10.261570 11.086976 -0.402629
10.554549 11.082351 -0.444261
-5.672742 11.318585 -0.496880
-5.490131 11.283318 -0.525737
8.780853 11.206288 -0.530208
10.289440 11.277309 -0.444032
-6.130199 11.555827 -0.527992
-5.912201 11.410564 -0.528235
-5.664802 11.422340 -0.489231
8.253498 11.578171 -0.563454
8.470997 11.430007 -0.550214
9.837167 11.592262 -0.442917
10.097270 11.413355 -0.443660
-6.484260 11.748459 -0.516419
-6.352068 11.670006 -0.547202
7.944950 11.732634 -0.577010
9.615274 11.739594 -0.442086
-6.866023 11.946079 -0.538432
-6.685218 11.869242 -0.553303
7.744568 11.876000 -0.589899
9.383872 11.909088 -0.441425
-7.209620 12.169630 -0.529933
-7.045174 12.035255 -0.557166
-6.972623 12.042663 -0.542522
8.304337 12.056622 -0.441709
9.129684 12.086077 -0.440413
9.423778 12.084613 -0.400407
-7.498296 12.350580 -0.551969
-7.280704 12.208935 -0.563498
8.939501 12.233429 -0.439867
9.103725 12.291466 -0.402658
-7.950276 12.521564 -0.472077
-7.679752 12.455500 -0.571189
8.468000 12.578597 -0.437825
8.708198 12.511784 -0.416612
-8.303945 12.640684 -0.408278
-8.106528 12.700555 -0.578532
-7.873367 12.613889 -0.576096
8.198405 12.759676 -0.436138
8.432184 12.764057 -0.407765
-8.870527 12.992012 -0.401203
-8.646395 12.917156 -0.486882
-8.356312 12.817076 -0.566946
7.990308 12.927665 -0.435329
8.109767 12.972567 -0.409513
-9.074541 13.093231 -0.403275
-8.946409 13.115627 -0.509065
-8.755155 13.025114 -0.589676
-8.576677 13.011497 -0.587071
7.765450 13.148067 -0.422517
-9.325809 13.271223 -0.456545
-9.099552 13.270330 -0.596006
-8.990320 13.206363 -0.563976
7.510655 13.247256 -0.431808
7.717408 13.212084 -0.411087
-9.729775 13.455010 -0.430255
-9.400142 13.442342 -0.571797
-9.354351 13.455540 -0.599470
7.063505 13.584357 -0.428965
7.311250 13.409829 -0.430817
7.461692 13.425709 -0.413296
-10.248911 13.745436 -0.457006
-10.060546 13.644829 -0.440630
-9.719264 13.635253 -0.578375
6.843770 13.762543 -0.427697
7.126157 13.659136 -0.414947
-10.442674 13.865282 -0.446182
-10.385553 13.837362 -0.467052
-10.150095 13.917341 -0.588369
6.533794 13.976274 -0.425047
6.714422 13.898795 -0.421214
-10.809107 14.089943 -0.432756
-10.704870 14.098996 -0.517464
-10.479371 14.102003 -0.594481
6.595620 14.018395 -0.416956
-11.673250 14.399702 -0.512027
-11.571650 14.356424 -0.500599
-10.681332 14.219463 -0.510837
5.494719 14.387771 -0.409201
5.695719 14.306533 -0.412156
-11.675144 14.487890 -0.488446
-11.508616 14.478072 -0.446374
5.305589 14.554638 -0.410165
5.860253 14.419065 -0.418384
-12.320436 14.737134 -0.542505
-12.138360 14.712818 -0.485022
-11.920885 14.675719 -0.494238
-11.770976 14.636833 -0.510656
-11.532974 14.623519 -0.444977
4.982637 14.747477 -0.408120
-12.689053 14.931751 -0.560600
-12.547915 14.938964 -0.509107
-12.245180 14.825577 -0.487306
-12.149506 14.844288 -0.496846
4.717929 14.923496 -0.407065
-13.171923 15.182274 -0.584410
-12.931834 15.116071 -0.537303
-12.738541 15.068527 -0.548557
-13.426832 15.317703 -0.597641
-13.306870 15.311256 -0.541098
-13.121704 15.254355 -0.574240
4.314327 15.210669 -0.412879
-13.973603 15.593234 -0.579591
-13.619705 15.473351 -0.527790
-13.405334 15.493625 -0.402505
3.974009 15.416509 -0.412220
6.284936 15.583326 -0.450986
-14.328039 15.768982 -0.593310
-14.022226 15.775786 -0.423117
-13.915754 15.713640 -0.455437
-13.740036 15.646361 -0.421806
3.627954 15.619424 -0.411246
-14.301036 15.912372 -0.457555
-13.943584 15.933708 -0.404759
-9.348591 15.992130 -0.403657
3.293526 15.849215 -0.410843
-14.886621 16.188663 -0.475493
-14.672412 16.086969 -0.477997
-14.425508 16.150978 -0.451197
-9.359147 16.116583 -0.427021
2.957464 16.062899 -0.409915
-15.236584 16.360523 -0.505966
-15.073906 16.279610 -0.500178
-14.940216 16.340509 -0.463304
2.601742 16.297663 -0.408942
-15.739876 16.563198 -0.533649
-15.411917 16.445322 -0.528358
-15.310692 16.516140 -0.462262
-10.821905 16.547276 -0.428894
-10.618959 16.563190 -0.535187
2.360226 16.563797 -0.425137
2.652212 16.468098 -0.415484
-16.131922 16.743824 -0.561839
-15.666535 16.697620 -0.469281
-15.509569 16.634501 -0.555261
-10.722514 16.645445 -0.448666
1.968218 16.714911 -0.406763
2.218793 16.655968 -0.441795
-16.502172 16.913330 -0.588508
-16.364346 16.920156 -0.565617
-16.095163 16.850607 -0.533621
-15.933667 16.874990 -0.489556
1.716194 16.920149 -0.453019
-16.852917 17.183750 -0.580293
-16.689829 17.080259 -0.581873
-16.490408 17.042179 -0.554352
-16.285286 17.147205 -0.430107
-16.072716 17.034084 -0.426370
1.283427 17.155392 -0.403610
1.406409 17.092896 -0.502111
-16.812344 17.323067 -0.582621
-16.752258 17.284304 -0.532668
0.908442 17.380919 -0.496005
1.171399 17.212738 -0.518699
-16.816309 17.430235 -0.439228
-0.384655 17.565847 -0.450656
0.758948 17.510283 -0.401167
15.849770 17.594587 -0.491304
-0.676186 17.679052 -0.468342
-18.085854 17.881975 -0.449286
-17.686996 17.974449 -0.489553
-17.521229 17.925720 -0.482724
-1.092503 17.845543 -0.494074
17.055012 17.962669 -0.410651
17.675159 17.818645 -0.493747
-18.986988 18.187109 -0.517227
-18.662094 18.064705 -0.508235
-18.417351 18.003664 -0.458317
-18.229971 18.177086 -0.469866
-18.134096 18.107332 -0.551978
-17.849529 18.069595 -0.439306
-17.615208 18.104603 -0.467289
-17.437723 18.129633 -0.443677
-1.381557 18.011751 -0.516558
17.697094 18.117626 -0.499076
-19.565971 18.366997 -0.576786
-19.227692 18.243107 -0.566056
-19.041569 18.385082 -0.551463
-18.637241 18.268291 -0.519862
-18.588404 18.308598 -0.481660
-18.083271 18.268896 -0.455406
-17.929926 18.218147 -0.437132
-17.426617 18.227421 -0.477625
16.350754 18.352962 -0.466281
16.815342 18.261055 -0.555330
-19.410156 18.495674 -0.580377
-19.378332 18.534105 -0.545768
-18.938217 18.503384 -0.484635
-18.754539 18.543251 -0.474955
-18.514736 18.434128 -0.448865
-18.391953 18.406174 -0.472798
-19.747332 18.647112 -0.576077
-19.299129 18.749718 -0.437560
-19.111685 18.705557 -0.460918
-18.673727 18.626352 -0.411294
-1.701275 18.793602 -0.430301
-1.467022 18.673166 -0.414150
-1.011695 18.715639 -0.420800
15.552929 18.768435 -0.526136
-20.020277 18.940693 -0.481963
-19.859228 18.973751 -0.497875
-19.676573 18.882042 -0.468081
-19.472086 18.823219 -0.464588
-1.991446 18.948788 -0.450788
-1.364677 18.871250 -0.448965
-20.887804 19.141705 -0.571445
-20.695194 19.187057 -0.585573
-20.440109 19.093536 -0.477590
-20.232380 19.107872 -0.516362
-20.118408 19.038643 -0.406831
-19.949677 19.012217 -0.470924
-15.704453 19.021904 -0.429358
-2.422359 19.154585 -0.478894
-2.114439 19.110455 -0.484183
-1.732235 19.043640 -0.479669
0.376779 19.178425 -0.440745
14.933884 19.119595 -0.576015
-21.194603 19.263639 -0.588195
-20.829288 19.304243 -0.429202
-20.682125 19.327545 -0.483818
-20.561419 19.225416 -0.403876
-2.298998 19.304874 -0.526383
0.399999 19.233946 -0.459929
-21.230751 19.415426 -0.465952
-21.074198 19.495142 -0.486993
-2.918250 19.586258 -0.576855
-2.511608 19.401772 -0.543754
-21.727013 19.771931 -0.495812
-21.538754 19.697981 -0.486219
-21.363724 19.613262 -0.492975
-22.095009 19.919151 -0.497790
-21.998999 19.898762 -0.489159
-21.796015 19.808823 -0.487878
-21.388250 19.989067 -0.431599
-17.027195 19.917715 -0.463523
-4.175714 19.944279 -0.447571
-22.625942 20.111652 -0.465995
-22.497082 20.092106 -0.500655
-22.323570 20.070171 -0.482402
-21.962637 20.061867 -0.431952
-5.601749 20.161699 -0.522293
-4.734535 20.125256 -0.405089
-4.547394 20.135284 -0.478991
-3.401076 20.047222 -0.426811
-23.087921 20.334816 -0.469773
-22.934677 20.294380 -0.487669
-22.678829 20.273979 -0.481296
-22.531212 20.392433 -0.475751
-22.319281 20.272717 -0.441060
-22.035719 20.206131 -0.455464
-5.523197 20.216452 -0.409743
-4.955617 20.288273 -0.471056
-4.211693 20.398870 -0.504520
-3.798501 20.223549 -0.465579
-23.007326 20.416601 -0.530357
-22.935402 20.494976 -0.475849
-22.686226 20.459988 -0.483380
-5.333889 20.451925 -0.470816
-5.157764 20.441027 -0.529876
-4.564704 20.556211 -0.538882
-6.756973 20.757660 -0.540695
-5.300118 20.794260 -0.595883
-5.106317 20.784565 -0.589342
-4.841424 20.672848 -0.564689
-7.133518 20.933193 -0.581614
-23.721962 21.119528 -0.591483
-24.484425 21.366249 -0.593265
-24.085281 21.325033 -0.512181
-23.853426 21.313894 -0.483821
-23.700584 21.257671 -0.477335
-7.388363 21.320911 -0.436223
11.735343 21.369987 -0.478976
-24.902058 21.582510 -0.570269
-24.745756 21.513668 -0.534097
-24.436213 21.450706 -0.513050
-24.394131 21.513613 -0.518043
-24.035362 21.423504 -0.529023
-23.591715 21.449852 -0.454613
-7.775928 21.497746 -0.476419
11.335320 21.596157 -0.517463
-25.512085 21.753641 -0.532454
-25.200333 21.745659 -0.549874
-25.129377 21.648691 -0.507966
-24.894625 21.680326 -0.537997
-24.712147 21.657452 -0.527002
-24.226784 21.769432 -0.435019
-22.356920 21.713478 -0.527152
-8.136703 21.672842 -0.514546
-6.088294 21.755207 -0.478213
-5.918310 21.695152 -0.460745
-26.328344 21.984079 -0.505917
-26.196779 21.902517 -0.578813
-25.906820 21.863541 -0.556314
-25.617138 21.898443 -0.550905
-25.529839 21.980892 -0.499338
-25.088831 21.862568 -0.469410
-24.891943 21.984390 -0.443849
-24.636992 21.892658 -0.434857
-24.591928 21.913162 -0.437154
-24.243525 21.802963 -0.401522
-8.532288 21.844349 -0.554997
-6.599251 21.922256 -0.528474
-6.266699 21.851706 -0.448417
-6.067562 21.948065 -0.429327
-4.482298 21.976048 -0.434969
10.722899 21.884933 -0.569010
-27.187954 22.183157 -0.527875
-26.710115 22.147161 -0.574523
-26.464745 22.183289 -0.589853
-26.354996 22.117561 -0.511467
-25.963787 22.083019 -0.502693
-25.227703 22.126698 -0.434546
-8.907902 22.013992 -0.593869
-7.113998 22.114689 -0.582758
-6.873813 22.030558 -0.558356
-27.182247 22.316725 -0.576370
-26.937843 22.232559 -0.558320
-26.734650 22.308868 -0.528539
-26.284096 22.240253 -0.521575
-25.617060 22.261143 -0.433021
-25.502396 22.243286 -0.436686
-23.620014 22.321127 -0.549179
-7.770424 22.395256 -0.593188
-6.696560 22.204964 -0.491987
10.145494 22.359762 -0.573194
-27.840212 22.540401 -0.598196
-27.496319 22.489925 -0.572256
-27.100550 22.500092 -0.524422
-26.730101 22.467848 -0.453529
-23.674686 22.414410 -0.560180
-7.587067 22.501881 -0.446970
-7.297605 22.421522 -0.457663
9.837812 22.574678 -0.573414
10.005154 22.446163 -0.573071
-28.018841 22.737089 -0.459637
-27.937725 22.688824 -0.552129
-27.670010 22.713203 -0.472942
-27.457998 22.648071 -0.533968
-7.723974 22.607933 -0.592106
-5.739242 22.691538 -0.544023
9.583999 22.710258 -0.572686
-28.812178 22.956936 -0.511470
-28.650175 22.960670 -0.503733
-28.471006 22.894705 -0.509838
-28.288364 22.876223 -0.477680
-28.199808 22.959358 -0.511494
-27.900986 22.856228 -0.513809
-8.944098 22.945723 -0.592300
-8.416149 22.945040 -0.432864
9.271475 22.923374 -0.572635
-29.328217 23.129717 -0.552952
-29.121420 23.071482 -0.535630
-28.862942 23.093267 -0.498522
-28.569468 23.092178 -0.508817
-9.290291 23.132420 -0.594633
-9.149200 23.179882 -0.528102
-8.906095 23.110725 -0.452512
-8.784410 23.066118 -0.481879
-30.537355 23.371235 -0.591445
-29.284998 23.350508 -0.475034
-29.042545 23.284359 -0.506524
-9.477040 23.271782 -0.576621
-9.351858 23.334381 -0.542811
-9.123721 23.257973 -0.512953
8.968567 23.276794 -0.431977
-31.415583 23.545631 -0.575078
-31.202757 23.544376 -0.543150
-31.037626 23.591471 -0.542418
-30.889566 23.563726 -0.535862
-30.717928 23.483421 -0.534473
-30.532488 23.514908 -0.563060
-29.245499 23.524448 -0.451225
-29.061243 23.400087 -0.417104
-10.008998 23.511772 -0.598650
8.647848 23.446281 -0.467954
-31.891434 23.790440 -0.536259
-31.661463 23.755318 -0.539134
-31.407372 23.697840 -0.541080
-31.029545 23.603899 -0.578451
-30.654572 23.734402 -0.485470
-30.497494 23.790264 -0.493534
-9.688477 23.631775 -0.408303
7.992077 23.743883 -0.534959
-32.653816 23.986431 -0.531870
-32.580521 23.997389 -0.459547
-32.311268 23.921516 -0.535364
-31.730961 23.981379 -0.429319
-31.290947 23.919708 -0.477072
-30.907879 23.810442 -0.482294
-28.956390 23.874105 -0.527086
-10.523270 23.923584 -0.404469
-10.271412 23.806143 -0.491487
-33.454079 24.186432 -0.526811
-33.353462 24.115421 -0.557368
-32.960037 24.030323 -0.523612
-32.697128 24.046003 -0.569174
-32.240265 24.011652 -0.502729
-32.055904 24.108809 -0.464587
-31.677826 24.022972 -0.471271
-11.467373 24.141514 -0.563506
-10.912535 24.128288 -0.493560
-10.625292 24.080429 -0.479582
-10.578404 24.033205 -0.459325
-34.296761 24.392086 -0.521080
-33.848289 24.272648 -0.523484
-32.850899 24.202007 -0.456827
-32.783596 24.316719 -0.454090
-32.419476 24.216452 -0.459612
-30.646311 24.280207 -0.569800
-11.266505 24.236902 -0.538450
-35.018188 24.539471 -0.514223
-34.710865 24.479912 -0.517364
-34.489880 24.563581 -0.400268
-34.263237 24.561378 -0.544786
-33.609425 24.532557 -0.440592
-33.291103 24.467596 -0.428648
-11.325138 24.400160 -0.476553
-10.905176 24.535065 -0.420050
6.239742 24.586853 -0.452699
-35.971146 24.781124 -0.513976
-35.725906 24.734356 -0.506724
-35.492931 24.729557 -0.553992
-35.294548 24.655991 -0.515690
-35.141396 24.689720 -0.576378
-34.891373 24.635765 -0.455591
-34.738895 24.681923 -0.500456
-34.368282 24.727226 -0.416352
-34.174988 24.617220 -0.442653
-33.952145 24.637028 -0.435823
-36.427101 24.845345 -0.547223
-36.322598 24.870058 -0.524262
-36.138107 24.806141 -0.531036
-35.799965 24.854225 -0.591979
-35.081512 24.950062 -0.417792
-34.755241 24.830431 -0.421202
-12.288220 24.857042 -0.587754
-12.047721 24.854441 -0.531653
-11.987507 24.884937 -0.533533
3.961739 24.906492 -0.400166
5.741955 24.838631 -0.506026
-36.324776 25.098642 -0.437695
-12.717957 25.066618 -0.560434
-12.399980 25.066767 -0.508546
-12.073364 25.075245 -0.590490
-10.723836 25.195442 -0.512754
5.346050 25.065411 -0.552008
-36.322456 25.266733 -0.442400
-12.847622 25.248400 -0.495320
-10.743140 25.233189 -0.480491
-38.320118 25.596817 -0.557230
-38.133015 25.573477 -0.552855
-37.978218 25.514400 -0.555132
-37.717548 25.448082 -0.511809
-37.488457 25.493196 -0.557819
-37.361950 25.572435 -0.501815
-15.501938 25.439886 -0.583848
-13.751291 25.488071 -0.559539
-13.505543 25.541901 -0.452873
-13.364766 25.519892 -0.429507
-39.153255 25.785202 -0.554942
-38.740013 25.681868 -0.558433
-38.499096 25.627026 -0.558764
-38.260067 25.659479 -0.572987
-37.885376 25.613277 -0.488531
-37.373974 25.613823 -0.584047
-12.901777 25.622955 -0.492025
5.009547 25.743153 -0.447260
5.335643 25.601423 -0.409116
-39.448303 25.859879 -0.550901
-39.334522 25.814545 -0.550632
-12.018086 25.811001 -0.555147
-11.900364 25.941877 -0.574756
4.528148 25.984980 -0.507909
4.688293 25.881514 -0.484655
-14.872224 26.181667 -0.545011
-13.952305 26.018906 -0.419220
1.501072 26.138536 -0.449874
4.231172 26.114414 -0.542659
-15.158340 26.235359 -0.584509
1.197147 26.319242 -0.487142
2.263401 26.331945 -0.403517
3.942220 26.240129 -0.576429
4.169342 26.352932 -0.419859
3.795984 26.508978 -0.469942
1.725304 26.613155 -0.472116
3.120600 26.797163 -0.561233
3.416555 26.662413 -0.520108
-17.619633 26.968266 -0.514071
-17.555824 26.943272 -0.594036
-16.936237 26.944788 -0.541476
-16.184769 26.842268 -0.419839
1.200283 26.985701 -0.551989
-17.725780 27.024855 -0.577557
-17.578640 27.106339 -0.522332
-17.267000 27.129494 -0.422513
-18.450783 27.461868 -0.514656
1.629448 27.546404 -0.428509
-18.957045 27.725721 -0.570373
-18.715906 27.608709 -0.599824
-18.413420 27.653814 -0.579799
-18.351141 27.645319 -0.567782
-17.249840 27.729927 -0.402147
-17.199495 27.798189 -0.407717
1.625980 27.708038 -0.451177
-19.322958 27.926033 -0.524778
-18.909721 27.958115 -0.445712
-18.512104 27.975708 -0.594479
-20.101351 28.149338 -0.529440
-19.715197 28.102949 -0.483384
-18.512857 28.111526 -0.501211
-18.379063 28.187218 -0.506222
-20.487974 28.298220 -0.512190
-20.078207 28.214052 -0.484427
-21.665436 28.576488 -0.595956
-20.871208 28.588640 -0.441088
0.487035 28.563269 -0.506065
0.628525 28.536291 -0.532027
-22.417068 28.767391 -0.542162
-22.349052 28.776493 -0.555723
-22.051422 28.757362 -0.556033
-21.108408 28.787066 -0.423381
-20.873142 28.786497 -0.416630
0.111580 28.714006 -0.561962
0.230132 28.637228 -0.550250
-22.719244 28.918152 -0.530011
-22.573702 28.820408 -0.540316
-22.392672 28.982750 -0.528631
-21.911400 28.944221 -0.457784
-21.499500 28.837967 -0.433150
-21.318760 28.850285 -0.456241
0.051466 28.864624 -0.526498
-23.158375 29.196087 -0.476602
-22.916130 29.155998 -0.480848
-22.779778 29.147881 -0.429715
-22.444777 29.117882 -0.537530
-22.270578 29.031792 -0.478396
-24.050306 29.329678 -0.585806
-23.970831 29.338196 -0.578310
-23.322367 29.333656 -0.439324
-23.043617 29.270933 -0.468880
-22.737682 29.202349 -0.498946
-24.011894 29.459251 -0.488371
-23.690567 29.497314 -0.471229
-23.537281 29.417442 -0.407969
-25.208233 29.795465 -0.593043
-25.093956 29.686443 -0.507476
-1.932040 29.741070 -0.543214
-1.777905 29.706453 -0.515947
-1.473575 29.634121 -0.461575
-25.846107 29.958364 -0.527405
-25.519264 29.888269 -0.533149
-25.253366 29.841265 -0.430230
-2.160183 29.808876 -0.585479
-1.916970 29.960608 -0.420149
-26.486168 30.091084 -0.457802
-26.028782 30.029181 -0.511375
-25.881165 30.003164 -0.559373
-2.697186 30.164062 -0.547632
-2.301976 30.101700 -0.496056
-27.065819 30.291058 -0.554101
-26.885063 30.253904 -0.533744
-2.920308 30.226929 -0.584591
-2.683216 30.370764 -0.504615
-2.519071 30.308151 -0.454664
-3.521821 30.591177 -0.532611
-3.275342 30.537151 -0.481445
-2.920534 30.490929 -0.477937
-3.674511 30.747515 -0.538535
-7.876465 30.858534 -0.485710
-8.600075 31.151093 -0.580889
-3.993852 31.072910 -0.401442
-4.462667 31.349016 -0.474387
-4.387959 31.214771 -0.482626
7.330322 31.545107 -0.536215
6.936150 31.810928 -0.594172
-6.151003 32.146362 -0.512811
-5.910059 32.129715 -0.463456
-7.900188 32.676628 -0.595417
-7.658962 32.667358 -0.539761
3.681404 32.946899 -0.438298
-10.692062 33.592461 -0.524087
-9.905880 33.406349 -0.425041
-10.960987 33.753582 -0.571160
-10.751835 33.896259 -0.570828
-13.907864 34.370953 -0.459681
-14.634346 34.561417 -0.556935
-18.719685 35.592052 -0.458812
-21.406731 36.615448 -0.473460
-22.232029 36.801243 -0.594963
-45.616589 -32.079899 -0.221856
-9.139759 -32.028622 -0.395923
-9.159042 -31.705723 -0.391312
-45.556915 -31.565601 -0.251835
-9.129476 -31.230473 -0.384837
-45.518501 -31.009319 -0.286226
-9.176613 -31.066074 -0.399932
-9.094472 -30.542231 -0.388222
-9.137244 -30.346725 -0.372575
-9.173878 -30.106546 -0.389644
-9.162642 -29.901831 -0.366355
-9.169434 -29.702400 -0.385390
-9.132808 -29.469397 -0.360567
-9.168697 -29.315744 -0.381358
-9.152338 -29.196102 -0.356771
-9.149269 -28.870678 -0.364498
-9.167326 -28.565866 -0.373659
-9.151933 -28.391100 -0.345896
-9.144337 -27.908136 -0.353219
-9.154293 -27.665171 -0.350324
-9.160181 -27.364017 -0.346919
-9.143978 -26.948818 -0.342272
-9.151348 -26.751770 -0.324109
-9.159922 -26.485197 -0.353253
-9.134075 -26.287270 -0.318074
-9.155647 -26.155575 -0.350159
-9.146451 -25.867237 -0.330110
-9.131804 -25.492432 -0.326089
-9.131883 -25.351431 -0.305974
-9.147266 -25.062374 -0.321134
-15.011837 -24.917873 -0.392580
-9.146528 -24.913452 -0.338881
-17.408192 -24.624523 -0.383133
-16.386967 -24.799458 -0.385902
-15.924965 -24.775311 -0.386894
-15.464047 -24.744370 -0.388344
-14.204734 -24.768517 -0.396276
-9.145496 -24.716061 -0.337146
-17.962053 -24.432739 -0.381737
-16.927370 -24.404781 -0.380795
-14.654382 -24.440002 -0.389371
-13.860670 -24.479282 -0.395803
-18.527401 -24.352577 -0.382387
-16.454952 -24.202148 -0.379169
-15.101614 -24.266895 -0.384767
-13.522100 -24.230213 -0.396035
-9.022882 -24.305159 -0.333456
-17.466005 -24.099228 -0.377495
-16.000692 -24.178341 -0.380013
-15.548155 -24.160030 -0.381439
-14.309565 -24.147434 -0.388469
-9.067893 -24.084257 -0.303837
-19.730680 -23.946465 -0.384201
-19.136974 -23.827492 -0.379543
-18.567101 -23.824974 -0.377019
-16.992842 -23.896385 -0.375208
-14.751492 -23.874630 -0.382379
-13.188776 -23.964111 -0.396322
-9.120259 -23.856569 -0.287095
-17.525286 -23.617653 -0.372363
-16.526947 -23.701351 -0.373528
-15.630338 -23.610672 -0.374966
-13.637221 -23.683956 -0.388790
-12.859993 -23.722084 -0.397127
-9.132519 -23.701073 -0.306706
-18.059795 -23.411194 -0.371110
-14.410228 -23.524715 -0.380707
-12.534229 -23.523621 -0.398682
-19.744392 -23.385342 -0.378720
-19.162149 -23.283939 -0.374143
-18.602562 -23.292236 -0.371614
-17.048592 -23.323856 -0.368959
-16.597361 -23.220615 -0.368142
-14.846331 -23.355362 -0.375953
-14.077030 -23.279243 -0.380447
-13.146509 -23.283104 -0.389109
-9.141472 -23.328720 -0.303050
-21.041742 -23.049603 -0.386600
-17.579250 -23.117630 -0.367059
-16.153646 -23.168842 -0.368393
-15.709476 -23.071392 -0.368650
-15.277647 -23.172009 -0.371584
-14.509272 -23.015583 -0.374272
-13.748713 -23.118900 -0.381399
-19.782028 -22.974094 -0.374920
-19.206507 -22.876583 -0.370263
-18.653429 -22.885529 -0.367611
-17.109943 -22.842751 -0.363735
-12.664100 -22.961456 -0.390811
-12.337769 -22.973129 -0.394929
-9.133615 -22.924183 -0.299033
-20.409451 -22.739307 -0.377652
-17.630930 -22.626083 -0.361874
-16.658895 -22.675922 -0.362096
-13.265235 -22.726986 -0.381604
-12.029660 -22.641529 -0.395249
-9.135593 -22.674381 -0.272596
-21.704473 -22.481873 -0.388963
-21.052599 -22.592861 -0.382521
-19.814705 -22.550846 -0.370999
-18.146610 -22.408360 -0.360783
-12.787791 -22.476070 -0.383908
-9.134813 -22.522171 -0.319090
-20.429676 -22.298283 -0.373649
-19.230122 -22.363377 -0.365227
-18.688845 -22.395596 -0.362714
-12.263659 -22.251099 -0.387782
-11.724703 -22.358780 -0.396355
-9.132438 -22.249260 -0.267491
-22.411804 -22.147591 -0.395495
-21.728924 -22.127197 -0.386178
-21.066860 -22.164154 -0.378766
-19.845495 -22.132298 -0.367142
-9.135668 -22.105602 -0.315940
-19.271030 -21.969002 -0.361520
-18.720917 -21.904968 -0.357826
-11.434373 -21.950855 -0.396139
-22.415026 -21.747425 -0.392264
-21.735622 -21.711941 -0.382676
-21.080460 -21.744789 -0.375120
-19.855585 -21.621674 -0.362259
-11.142693 -21.650227 -0.397407
-9.136818 -21.768353 -0.287602
-20.476610 -21.486893 -0.366466
-11.675502 -21.510563 -0.387645
-22.410036 -21.327427 -0.388783
-21.734850 -21.278450 -0.378953
-21.090425 -21.321819 -0.371433
-9.126726 -21.352783 -0.283645
-23.143885 -21.168091 -0.399124
-22.432428 -21.014069 -0.386600
-20.495134 -21.076977 -0.362834
-11.395310 -21.097775 -0.387314
-21.733515 -20.853878 -0.375330
-21.100740 -20.912010 -0.367898
-10.958332 -20.819427 -0.391379
-9.129066 -20.975693 -0.280199
-23.113789 -20.707359 -0.395180
-9.127113 -20.602962 -0.305388
-22.375736 -20.432098 -0.381108
-10.531923 -20.502327 -0.395376
-9.124753 -20.502550 -0.247174
-21.040352 -20.223469 -0.361092
-9.118503 -20.222338 -0.244011
-9.129215 -20.118160 -0.272480
-28.587482 -19.831310 -0.211468
-22.964844 -19.876072 -0.386493
-11.097789 -19.849468 -0.378396
-9.140091 -19.835672 -0.239778
-9.128307 -19.735058 -0.299973
-23.603565 -19.518669 -0.395670
-22.191166 -19.423569 -0.370306
-10.688974 -19.507160 -0.381812
-9.965980 -19.399002 -0.394456
-9.123665 -19.341318 -0.265902
-30.985657 -19.093678 -0.202112
-28.602514 -19.003136 -0.222041
-9.127832 -18.913271 -0.295332
-30.932896 -18.699989 -0.206232
-23.418816 -18.661819 -0.386389
-22.719467 -18.758133 -0.374066
-9.686586 -18.615292 -0.392058
-28.120682 -18.577980 -0.203498
-10.560824 -18.488888 -0.373170
-10.001026 -18.415096 -0.383380
-9.128172 -18.519892 -0.293297
-30.927139 -18.286198 -0.212738
-21.973984 -18.328266 -0.358343
-9.133410 -18.143501 -0.291502
-30.926620 -17.892178 -0.219208
-28.146301 -17.811905 -0.213761
-23.984348 -17.901115 -0.393333
-23.240662 -17.841866 -0.377509
-22.570606 -17.967175 -0.365734
-9.423709 -17.852741 -0.389970
-30.922478 -17.626339 -0.223450
-28.734257 -17.781776 -0.231661
-9.736006 -17.640362 -0.380884
-9.136246 -17.773647 -0.289841
27.392050 -17.777449 -0.220242
-21.849995 -17.572079 -0.350521
-10.036453 -17.476025 -0.372795
-9.137848 -17.411648 -0.288325
-28.705046 -17.227993 -0.248356
-22.423954 -17.200394 -0.357642
-9.138845 -17.328690 -0.391248
27.360270 -17.263433 -0.259196
-23.074389 -17.072788 -0.369223
-9.456663 -17.074493 -0.381291
-9.022306 -17.029936 -0.285887
-30.864590 -16.999393 -0.231451
-23.718346 -16.915504 -0.381830
-9.078222 -16.866919 -0.285746
-30.864632 -16.754822 -0.235612
-29.246338 -16.665550 -0.282902
-9.780464 -16.740971 -0.370628
-30.867828 -16.520378 -0.239770
-9.156400 -16.522751 -0.333186
-22.212185 -16.251099 -0.347106
-9.119200 -16.203400 -0.283945
-30.863277 -16.155731 -0.245872
-23.542330 -16.186104 -0.373801
-22.833279 -16.107399 -0.358203
-9.549594 -15.966882 -0.367922
-31.760490 -15.687823 -0.295994
-10.747369 -15.754631 -0.340360
-9.131662 -15.766591 -0.282895
-30.832157 -15.403468 -0.257672
-23.366932 -15.472198 -0.365899
-22.680820 -15.410155 -0.350708
-22.084949 -15.578040 -0.340081
-12.334329 -15.526147 -0.311628
-9.872557 -15.574931 -0.356603
-9.293978 -15.439740 -0.368692
11.859295 -15.434676 -0.215403
-31.700678 -15.248193 -0.301381
-13.923363 -15.306338 -0.291582
-9.118898 -15.332526 -0.281810
-30.800602 -15.006082 -0.263309
-15.487458 -15.112863 -0.280800
11.883579 -15.126615 -0.228746
-31.681833 -14.895066 -0.307181
-23.943424 -14.996551 -0.377116
-17.041925 -14.928765 -0.278855
-9.649569 -14.861981 -0.354442
-9.126878 -14.920721 -0.324283
-30.797379 -14.674125 -0.269156
-23.201515 -14.797559 -0.358464
-22.538887 -14.756028 -0.343724
-18.635695 -14.716002 -0.285647
11.843002 -14.679765 -0.244695
-31.659554 -14.439479 -0.314856
-20.217541 -14.567464 -0.301910
-9.122208 -14.533242 -0.280649
-30.784828 -14.329831 -0.274848
-23.777061 -14.369216 -0.370103
-21.758940 -14.324817 -0.325370
-9.278526 -14.378476 -0.358639
11.862429 -14.216498 -0.264272
-31.642996 -14.105254 -0.320547
-30.794687 -14.139783 -0.278814
-23.047419 -14.164496 -0.351539
-22.402172 -14.129170 -0.337042
-9.118410 -14.144611 -0.280304
-9.147794 -13.833138 -0.318130
-28.066294 -13.659472 -0.259044
-23.613968 -13.760661 -0.363281
11.849949 -13.732474 -0.283365
-31.615490 -13.562936 -0.329898
-29.718296 -13.444880 -0.241318
-22.267147 -13.519187 -0.330521
-31.288233 -13.263846 -0.319497
-31.101725 -13.320411 -0.220867
-9.511836 -13.352263 -0.342743
-9.120998 -13.364157 -0.280333
11.848963 -13.267478 -0.302411
-34.281822 -13.013327 -0.391519
-32.666943 -13.118174 -0.300451
-31.596981 -13.052192 -0.339236
-23.439594 -13.136264 -0.356130
-9.148447 -13.191049 -0.350468
-34.195778 -12.954997 -0.388457
-31.581909 -12.838922 -0.342815
-24.031277 -12.849099 -0.370777
-22.746014 -12.950303 -0.338191
-9.293137 -12.863330 -0.343553
-9.129853 -12.901100 -0.314286
11.861710 -12.822833 -0.321458
-35.968399 -12.723444 -0.228376
-37.599297 -12.533226 -0.365549
-23.946869 -12.470651 -0.367182
-23.280949 -12.559308 -0.349608
-9.120213 -12.537322 -0.281248
-41.543945 -12.200087 -0.202024
-22.599075 -12.369176 -0.331775
11.873095 -12.384444 -0.340360
-43.488087 -12.006420 -0.273477
-43.270874 -12.023916 -0.308437
-43.079849 -12.051655 -0.242082
-42.976315 -12.080247 -0.259177
-42.794273 -12.077992 -0.258669
-42.558468 -12.111177 -0.215299
-42.353580 -12.063310 -0.250558
-42.088474 -12.138822 -0.259345
-41.799397 -12.168137 -0.221539
-40.846680 -12.173005 -0.212149
-9.126861 -12.146421 -0.311359
27.427588 -12.014745 -0.231050
-45.052227 -11.836121 -0.395587
-44.949184 -11.824688 -0.221644
-44.679062 -11.868761 -0.366637
-44.554184 -11.897395 -0.381227
-44.277298 -11.916483 -0.347619
-44.075104 -11.890656 -0.350298
-43.869247 -11.915479 -0.349152
-43.683563 -11.980953 -0.332235
-42.471161 -11.978591 -0.259110
-31.088585 -11.801892 -0.338879
-23.777554 -11.916034 -0.360668
-23.121849 -11.991235 -0.343135
-22.468756 -11.839461 -0.326035
11.847090 -11.994683 -0.355542
-46.147636 -11.700626 -0.374082
-45.913677 -11.674084 -0.347833
-45.701981 -11.714821 -0.334744
