# This PCD file was generated using the MATLAB® pcwrite function
# from Computer Vision Toolbox®.
# .PCD v.7 - Point Cloud Data file format
VERSION .7
FIELDS x y z
SIZE 4 4 4
TYPE F F F
COUNT 1 1 1
WIDTH 1468
HEIGHT 1
VIEWPOINT 0 0 0 1 0 0 0
POINTS 1468
DATA ascii
-418.239105 -4.467882 9.166406
-417.073029 -4.478001 9.019333
-418.674805 -4.182782 9.056685
-416.877380 -4.020157 9.086452
-416.045319 -4.350775 9.194660
-419.028870 -3.957172 8.965684
-418.164185 -3.671061 8.861544
-417.984161 -3.677221 8.838131
-417.348724 -3.680290 9.155582
-417.023346 -3.943993 9.072570
-418.713135 -3.281687 8.835632
-417.138123 -3.470757 9.187626
-430.460632 -3.154350 8.922201
-430.526642 -2.409256 8.815013
-430.090210 -2.437371 9.103863
-418.786713 -2.637936 9.011402
-435.372589 -2.160381 9.030761
-435.008881 -2.054985 8.819586
-430.671844 -2.170312 8.867992
-435.060242 -1.916534 8.813295
-435.800964 -1.225435 9.029723
-435.528717 -1.032703 8.844100
-427.998901 -0.490546 8.875795
-431.831207 5.592377 9.072877
-425.726196 -42.224953 9.297394
-436.637238 -39.931046 9.225444
-436.295380 -39.770836 9.260287
-438.510590 -39.370758 9.215474
-436.576965 -39.419506 9.405031
-436.613068 -39.169373 9.233743
-412.109711 -36.147858 9.471031
-408.862793 -36.344528 9.505713
-412.275513 -35.877636 9.433166
-437.683258 -35.240433 9.274617
-423.280396 -35.259834 9.376474
-412.048798 -35.403702 9.583277
-438.203430 -34.876846 9.437396
-437.766357 -34.935143 9.437450
-423.377655 -35.097698 9.337005
-422.994781 -35.064205 9.487747
-437.285339 -34.570900 9.408027
-430.681915 -34.574272 9.599123
-430.804413 -34.155708 9.473406
-430.602875 -34.160885 9.539592
-430.209900 -34.250198 9.291447
-432.086609 -33.777519 9.287848
-430.947662 -33.751099 9.284012
-430.554840 -33.698887 9.208746
-430.031525 -33.613415 9.572899
-429.752686 -33.797050 9.397989
-420.667419 -33.671268 9.256722
-417.694580 -33.767059 9.437687
-429.925079 -33.538906 9.558856
-424.851532 -32.172409 9.474766
-424.682037 -32.158585 9.432536
-405.701172 -32.369576 9.204993
-422.878448 -31.324512 9.414512
-422.235107 -31.244528 9.210955
-422.586792 -30.974751 9.432369
-407.716766 -30.891813 9.398763
-427.855865 -30.592854 9.256790
-423.163391 -30.791904 9.381409
-422.705139 -30.629208 9.334497
-422.330933 -30.669502 9.296919
-419.654541 -30.470125 9.447201
-419.553680 -30.411163 9.468621
-407.586090 -30.680420 9.535095
-437.027588 -30.285839 9.438477
-436.640747 -30.202745 9.298191
-436.306915 -30.311951 9.241622
-427.780365 -30.187416 9.592797
-422.526855 -30.201622 9.558507
-419.500427 -30.384937 9.481258
-415.606567 -30.152821 9.420513
-415.490784 -30.085230 9.438974
-437.241577 -29.898811 9.357856
-437.024597 -29.989235 9.329912
-428.210510 -29.738804 9.492121
-407.248322 -29.877464 9.262363
-403.186523 -29.631964 9.267751
-402.513580 -29.910048 9.593143
-428.254150 -29.560802 9.401077
-422.712799 -28.896454 9.420270
-422.823181 -28.515717 9.474398
-422.621216 -28.603306 9.471321
-422.213928 -28.497259 9.415764
-423.229248 -28.299953 9.523232
-422.438354 -28.277248 9.388532
-417.274628 -27.671415 9.545844
-417.108215 -27.806103 9.581460
-432.842804 -27.308674 9.419881
-417.752441 -27.345160 9.258835
-417.274658 -27.401258 9.437878
-417.805389 -26.897163 9.348151
-417.520508 -27.142815 9.308039
-417.794495 -26.712189 9.443155
-432.707214 -26.236887 9.228833
-432.315674 -26.207253 9.519160
-433.290039 -25.844463 9.243355
-432.996002 -25.656828 9.231053
-432.564331 -25.805811 9.368829
-432.218231 -25.948610 9.305238
-443.628052 -25.550299 9.238914
-432.997559 -25.452065 9.336231
-432.219330 -25.538948 9.502685
-432.674194 -24.983780 9.448336
-410.679382 -24.850309 9.400409
-410.546173 -24.406841 9.444835
-411.737793 -24.119989 9.465384
-411.587585 -24.262869 9.574469
-411.557404 -23.860641 9.448115
-412.251801 -23.440063 9.524961
-446.532959 -22.907791 9.444406
-412.550598 -22.919207 9.406794
-446.673706 -22.625336 9.345291
-412.244049 -22.556555 9.464461
-447.307373 -22.176075 9.288027
-435.663025 -22.221237 9.441378
-419.697327 -22.238964 9.286734
-419.246063 -22.188665 9.283539
-418.981903 -22.253878 9.485894
-418.600586 -22.151718 9.409142
-411.090118 -22.221092 9.228582
-435.433472 -21.851234 9.509657
-420.492584 -21.782202 9.348927
-414.646729 -21.608570 9.433316
-414.106934 -21.858669 9.417196
-412.082397 -21.977180 9.341118
-407.648376 -21.699455 9.485988
-407.457703 -21.755720 9.594234
-435.285339 -21.271967 9.447014
-420.654694 -21.552858 9.261349
-420.379883 -21.407494 9.456390
-414.592804 -21.587704 9.207420
-414.162109 -21.380302 9.384310
-407.337524 -21.588457 9.205383
-438.458405 -21.061577 9.246122
-420.344727 -20.997898 9.515909
-418.884155 -21.009605 9.242785
-414.025726 -21.094322 9.435260
-443.445312 -20.663279 9.470633
-419.465210 -20.456316 9.587854
-418.553528 -20.467617 9.581283
-413.771057 -20.782078 9.364971
-419.754333 -20.265469 9.420036
-419.473541 -20.200911 9.598779
-414.110321 -20.363331 9.227616
-442.932434 -19.824106 9.466138
-424.136993 -19.710016 9.493261
-419.931885 -19.933826 9.330729
-419.246124 -19.813194 9.201973
-424.439056 -19.421406 9.332942
-424.235229 -19.284767 9.537675
-423.537842 -19.286209 9.559391
-419.709412 -19.430918 9.501174
-415.381897 -19.224308 9.472964
-404.928528 -19.422533 9.588672
-404.514313 -19.298149 9.258377
-420.637756 -18.979343 9.355995
-414.979614 -18.936966 9.330664
-405.573242 -18.964701 9.427095
-404.815521 -18.941206 9.214179
-404.491821 -19.058548 9.354454
-423.664398 -18.752840 9.593651
-416.919922 -18.554169 9.331499
-416.715454 -18.513420 9.450325
-415.636871 -18.789841 9.276638
-414.793640 -18.700703 9.216991
-406.031311 -18.495644 9.357406
-405.745911 -18.557915 9.312590
-405.407867 -18.709938 9.459086
-405.043365 -18.608171 9.260083
-404.390961 -18.688683 9.474864
-406.050964 -18.065250 9.483823
-405.818726 -18.196159 9.420607
-417.319275 -17.605152 9.429064
-416.704926 -17.685543 9.379976
-416.125793 -17.644352 9.422592
-406.305450 -17.837751 9.434296
-405.804321 -17.841408 9.458412
-405.481201 -17.757996 9.568567
-418.119812 -17.451155 9.362548
-417.857452 -17.255363 9.258363
-416.687958 -17.227343 9.223755
-405.904694 -17.418667 9.201643
-404.573395 -17.294592 9.356905
-403.839172 -17.373873 9.548987
-402.841705 -17.250530 9.274045
-407.012756 -16.936543 9.386913
-406.727570 -16.923731 9.520163
-406.218384 -17.175777 9.559894
-403.053833 -16.931080 9.286421
-418.738037 -16.532753 9.595997
-417.980225 -16.569328 9.593862
-408.857178 -16.577791 9.483763
-408.552246 -16.717995 9.538445
-406.842621 -16.709230 9.542836
-403.274231 -16.635912 9.288251
-403.071503 -16.469044 9.404816
-415.888611 -16.090750 9.255721
-408.569061 -16.142263 9.445914
-408.239227 -16.221054 9.411467
-407.911224 -16.226833 9.380810
-402.784576 -16.008221 9.443237
-408.528412 -15.951460 9.286987
-408.191101 -15.972593 9.290780
-407.754639 -15.908201 9.347299
-406.869690 -15.767131 9.267027
-403.712891 -15.920996 9.472313
-403.300385 -15.827950 9.375684
-402.995178 -15.898893 9.392952
-408.383667 -15.354015 9.595656
-407.807800 -15.244465 9.213227
-407.029968 -15.297338 9.376905
-443.944122 -14.875051 9.267170
-420.860199 -14.813983 9.390596
-418.680634 -15.027062 9.420612
-418.074219 -14.982019 9.343829
-416.639893 -15.074266 9.548645
-407.907990 -15.138861 9.513207
-407.407074 -14.867712 9.491234
-406.991699 -14.974215 9.442775
-400.259186 -14.990555 9.306733
-419.291779 -14.454632 9.366595
-419.031403 -14.580577 9.418505
-407.592255 -14.618979 9.537791
-407.042206 -14.703899 9.569455
-400.794006 -14.410412 9.563617
-441.730530 -14.093471 9.537209
-420.598297 -14.118926 9.302633
-419.422943 -14.185103 9.298615
-406.212891 -14.175648 9.425734
-401.454346 -14.025575 9.319156
-400.894348 -14.222357 9.304979
-441.638977 -13.823941 9.330536
-420.836334 -13.792076 9.474534
-420.190125 -13.800377 9.426857
-419.170990 -13.974855 9.454065
-406.539215 -13.950223 9.418038
-406.365997 -13.638972 9.338531
-406.549286 -13.568241 9.299765
-405.648407 -13.229902 9.266765
-404.854340 -13.359705 9.554766
-404.748322 -13.409735 9.581487
-400.497620 -13.434084 9.507803
-400.059265 -13.520572 9.563595
-423.330536 -13.155512 9.236846
-423.179413 -12.897404 9.207251
-420.364899 -12.949716 9.584653
-419.458282 -13.083344 9.315055
-419.039978 -13.014095 9.563812
-405.870483 -13.064213 9.251154
-404.999634 -12.989966 9.506496
-401.029785 -13.114972 9.276525
-406.212158 -12.782606 9.233451
-405.686035 -12.518089 9.447731
-405.779907 -12.228497 9.480063
-404.903107 -11.792961 9.393753
-425.515900 -11.313392 9.316730
-405.973938 -11.285421 9.574988
-405.292664 -11.277891 9.231929
-405.182587 -11.221648 9.506312
-404.375946 -11.538839 9.232861
-405.890106 -11.148360 9.441767
-405.465942 -11.028222 9.322460
-445.406586 -10.573887 9.490799
-434.002899 -10.623995 9.270292
-425.853271 -10.503655 9.309845
-425.394928 -10.662760 9.454219
-403.656158 -10.483134 9.327915
-445.275787 -10.367834 9.307333
-426.495239 -10.325821 9.331349
-425.895386 -10.226950 9.226573
-405.077789 -10.099852 9.498446
-404.560974 -10.013488 9.435490
-431.486267 -9.738110 9.301021
-420.238861 -9.811367 9.273560
-404.935242 -9.919894 9.312517
-404.608643 -9.809658 9.215087
-404.123077 -9.843395 9.286699
-403.968933 -9.998770 9.204547
-431.439026 -9.522141 9.227590
-431.758972 -9.105887 9.380617
-431.371674 -9.085119 9.441487
-431.874512 -8.458581 9.236467
-431.740784 -8.197531 9.263504
-431.315277 -8.310936 9.377770
-432.139679 -7.755942 9.228832
-431.790009 -7.961193 9.407627
-432.488800 -7.588249 9.385763
-418.691833 -4.740494 9.565758
-416.454773 -4.476931 9.330383
-419.011383 -4.236833 9.354145
-418.610504 -4.320699 9.206772
-418.148285 -4.284420 9.283633
-417.902649 -4.189197 9.454794
-417.268860 -4.289235 9.578770
-418.364563 -3.742451 9.384354
-417.070618 -3.698433 9.288919
-416.635742 -3.943243 9.423109
-430.262024 -2.989712 9.342129
-430.332672 -2.200499 9.239598
-434.982056 -1.902966 9.492478
-435.153290 -1.560512 9.509555
-430.789642 -1.089346 9.372202
-428.172119 6.659742 9.389977
-428.071350 6.823416 9.306993
-438.507233 -39.673523 9.794790
-438.592468 -39.292912 9.929982
-422.112610 -38.493568 9.842409
-437.408966 -35.218113 9.952945
-428.376190 -35.251385 9.717319
-427.965546 -35.415283 9.881611
-422.565247 -35.447140 9.785955
-437.455872 -35.046066 9.777897
-423.235840 -35.095413 9.805264
-423.065399 -35.063137 9.980119
-411.720856 -34.895584 9.776944
-437.602112 -34.485722 9.605542
-431.360657 -34.456371 9.788828
-430.990723 -34.568810 9.698013
-431.456818 -34.243446 9.807296
-431.103973 -33.850811 9.767806
-430.487885 -33.792648 9.837819
-417.741821 -33.820526 9.959136
-431.337982 -33.395920 9.721010
-430.992859 -33.441589 9.919933
-430.405609 -33.403557 9.707731
-430.308624 -33.471611 9.741621
-430.737274 -33.137016 9.718513
-430.192627 -33.124733 9.989325
-440.479919 -32.654469 9.757853
-430.453400 -32.778038 9.994711
-424.624115 -32.209965 9.696065
-408.346283 -31.239222 9.640630
-407.641907 -31.361460 9.782917
-422.894226 -31.174063 9.758225
-407.146332 -31.100117 9.702974
-421.913818 -30.432917 9.810041
-420.842621 -30.664200 9.893623
-419.677246 -30.439255 9.805874
-407.504456 -30.542355 9.622324
-436.805298 -30.245054 9.974154
-436.540649 -30.200256 9.874721
-436.158508 -30.014675 9.682577
-422.647278 -30.394630 9.743505
-419.569336 -30.363401 9.935263
-415.483856 -30.127558 9.693781
-407.404724 -30.252415 9.750031
-407.063568 -30.089851 9.953277
-403.497650 -30.134621 9.694359
-442.381134 -29.630772 9.883226
-436.986237 -29.624239 9.781614
-427.868988 -29.639763 9.885460
-427.553894 -29.838345 9.889132
-422.441864 -29.691618 9.736679
-422.326965 -29.725393 9.723799
-403.356476 -29.755730 9.886974
-402.386932 -29.685917 9.733636
-427.895111 -29.406281 9.741591
-422.546021 -28.683666 9.716759
-422.166229 -28.604536 9.745762
-423.405121 -28.204039 9.801019
-423.118805 -28.357903 9.638399
-422.495972 -28.293234 9.810034
-422.336273 -28.275278 9.883485
-417.560669 -27.720505 9.841488
-417.050476 -27.726629 9.615998
-417.389465 -27.360630 9.956076
-417.068207 -27.558945 9.605593
-433.173492 -26.897167 9.829693
-417.800140 -26.923349 9.741406
-417.502869 -27.049734 9.746195
-417.870117 -26.628372 9.897097
-419.123627 -26.315006 9.926228
-443.598846 -25.659801 9.960969
-433.490417 -25.664633 9.702944
-432.945251 -25.956005 9.641344
-432.619812 -25.664770 9.784883
-432.240814 -25.834215 9.722157
-443.570801 -25.472427 9.869884
-433.666260 -25.561274 9.717500
-432.406372 -25.376734 9.968498
-432.063416 -25.419342 9.826292
-410.006897 -25.091843 9.621017
-432.673309 -24.622841 9.895744
-432.358917 -24.726753 9.933179
-432.756317 -24.332640 9.833159
-410.989594 -24.046009 9.996648
-411.785400 -23.626875 9.860620
-411.559814 -23.831554 9.784867
-446.861298 -23.352070 9.737154
-446.460175 -23.416952 9.666717
-412.434448 -23.287630 9.851279
-412.019531 -23.461561 9.724961
-411.999451 -23.542362 9.905500
-417.957184 -22.994724 9.826488
-412.411133 -23.069122 9.733320
-412.026215 -23.150696 9.606444
-411.926849 -22.955160 9.738441
-418.950348 -22.610228 9.845015
-418.651031 -22.720654 9.956429
-418.045258 -22.636421 9.790245
-417.924622 -22.666706 9.928730
-446.957336 -22.101601 9.933552
-446.055145 -22.254124 9.747459
-420.324036 -22.033274 9.945401
-419.530334 -22.324598 9.944098
-418.692932 -22.348856 9.952583
-418.240967 -22.245844 9.785603
-417.963348 -22.160263 9.857553
-411.361572 -22.153349 9.841187
-435.618988 -21.662003 9.982847
-435.342194 -21.835199 9.927928
-420.448029 -21.727818 9.891166
-420.265228 -21.796988 9.838977
-419.855469 -21.803810 9.770761
-419.554352 -21.799759 9.971611
-419.101501 -21.804632 9.730686
-418.549713 -21.950516 9.894240
-418.242523 -21.948259 9.703751
-414.224701 -21.749239 9.679008
-420.563446 -21.475119 9.837899
-412.353271 -21.219090 9.729725
-438.383362 -20.968643 9.669773
-435.244324 -21.158535 9.815760
-419.843170 -21.064047 9.842592
-442.901520 -20.445263 9.791309
-442.633240 -20.668293 9.800737
-424.030396 -20.532883 9.851341
-418.410736 -20.560883 9.660936
-418.264465 -20.448231 9.750627
-413.664124 -20.655720 9.649519
-443.097748 -20.209097 9.744718
-424.409515 -20.186995 9.634193
-420.174866 -20.250208 9.695312
-419.967407 -20.299797 9.827983
-415.842133 -20.088015 9.862974
-424.618347 -19.609619 9.649368
-424.127655 -19.993120 9.676023
-423.784729 -19.869804 9.737223
-419.965698 -19.957285 9.933688
-405.019287 -19.821823 9.776781
-404.481567 -19.810238 9.733370
-424.524078 -19.426189 9.791085
-424.144073 -19.302822 9.606174
-423.710754 -19.439415 9.920990
-424.821625 -18.815619 9.751431
-424.754669 -18.892365 9.780354
-419.979828 -18.882774 9.949861
-419.340424 -18.942375 9.761761
-404.984192 -19.164555 9.750422
-424.847717 -18.714252 9.765019
-422.816803 -18.448383 9.750164
-422.725769 -18.451725 9.817687
-420.255463 -18.639557 9.791675
-415.651367 -18.441755 9.812599
-406.106720 -18.598595 9.838829
-405.740295 -18.700878 9.995791
-405.327972 -18.422314 9.758568
-424.840820 -18.217367 9.851398
-424.317230 -18.261070 9.776546
-423.171173 -18.219616 9.948618
-420.315857 -18.132750 9.800426
-415.961182 -18.046242 9.621882
-415.512726 -18.384037 9.779037
-406.492035 -18.158413 9.755395
-405.143463 -18.388523 9.721007
-402.194763 -18.371593 9.844399
-420.284454 -17.833931 9.849743
-406.579559 -17.682987 9.895691
-402.267029 -17.958288 9.937263
-405.991211 -17.340210 9.740419
-405.511139 -17.354124 9.809798
-404.937012 -17.353354 9.836438
-402.675293 -17.488197 9.913839
-415.867432 -17.103626 9.810906
-408.615601 -16.829575 9.615063
-407.418579 -16.997229 9.852243
-407.151733 -16.962048 9.803785
-406.217804 -16.984589 9.704379
-405.619629 -17.128887 9.735086
-403.121429 -17.094355 9.852017
-418.575500 -16.584900 9.620387
-417.053925 -16.746117 9.895576
-408.970886 -16.504297 9.668536
-408.692963 -16.551619 9.647487
-407.621033 -16.780148 9.870460
-406.559814 -16.536333 9.714531
-406.226898 -16.426390 9.914598
-414.697601 -16.098381 9.841291
-408.695770 -16.060287 9.995821
-407.778046 -16.163982 9.778692
-406.259399 -16.255688 9.930767
-416.822052 -15.709312 9.732949
-416.594604 -15.620667 9.668037
-408.650116 -15.829315 9.845538
-408.313049 -15.803931 9.801037
-407.847595 -15.997062 9.884046
-407.037994 -15.735737 9.743249
-406.571014 -15.962561 9.895411
-416.344025 -15.562822 9.620010
-408.239380 -15.431692 9.690145
-407.805786 -15.386416 9.883026
-407.375122 -15.364388 9.885779
-408.018036 -15.059030 9.849392
-406.991455 -15.047334 9.830143
-401.359680 -14.910393 9.711284
-400.510315 -14.923999 9.920932
-443.927917 -14.748295 9.918530
-420.065857 -14.608310 9.942886
-419.787476 -14.581456 9.817673
-419.511078 -14.755778 9.997923
-419.174133 -14.690650 9.932409
-418.719147 -14.593231 9.698519
-407.641388 -14.780603 9.751880
-407.240204 -14.695932 9.613189
-407.117432 -14.745189 9.603806
-401.951752 -14.531239 9.614337
-401.178009 -14.509696 9.655579
-419.855621 -14.303958 9.733528
-406.508942 -14.055029 9.918427
-401.279114 -14.021000 9.980961
-406.656067 -13.990697 9.872016
-401.501099 -13.818520 9.831646
-401.066681 -13.705007 9.731147
-400.030426 -13.700975 9.700967
-419.662048 -13.403273 9.928425
-406.518707 -13.547042 9.855236
-405.706848 -13.344122 9.914999
-405.282745 -13.498451 9.980141
-404.555664 -13.409340 9.652050
-402.075348 -13.508582 9.610724
-400.819427 -13.596613 9.640829
-423.343018 -12.868854 9.891504
-420.999756 -12.888555 9.606083
-420.779205 -13.050541 9.693927
-420.124237 -13.111606 9.670644
-405.762634 -13.014705 9.985616
-401.067627 -13.000067 9.849380
-423.534760 -12.765203 9.775985
-405.583557 -12.634561 9.642370
-405.021851 -12.482139 9.690659
-405.903748 -12.128373 9.790720
-406.023590 -11.614673 9.893052
-434.083252 -11.365724 9.696246
-404.486908 -11.458517 9.734596
-403.445251 -11.362053 9.663857
-426.178101 -11.006486 9.790234
-425.709808 -10.801493 9.819592
-406.265167 -10.929281 9.787284
-405.789948 -10.994694 9.852821
-403.958374 -10.980953 9.880823
-433.550995 -10.633886 9.963215
-432.055237 -10.666795 9.819834
-425.918854 -10.545893 9.913703
-406.342957 -10.797324 9.651955
-405.278961 -10.766199 9.623236
-403.979340 -10.711651 9.610631
-432.265198 -10.348622 9.867464
-426.337036 -10.344912 9.676640
-405.122284 -10.253796 9.662640
-404.233459 -10.204642 9.661355
-403.692780 -10.224186 9.723657
-403.436707 -10.267841 9.791533
-403.082520 -10.380256 9.941534
-431.498352 -9.829805 9.932312
-420.172760 -9.822413 9.840951
-419.886230 -9.822521 9.876206
-403.156982 -9.686460 9.623963
-403.130920 -9.241488 9.669866
-431.877228 -8.600229 9.828302
-431.526367 -8.479393 9.637702
-432.215607 -8.240209 9.998483
-431.674255 -8.280010 9.681121
-431.426697 -8.364022 9.926840
-418.613159 -4.536045 9.763719
-418.336334 -4.619356 9.830584
-418.918274 -4.139740 9.710287
-418.476654 -4.276575 9.876892
-416.942688 -4.080565 9.850133
-417.697266 -3.679167 9.711040
-417.341553 -3.740116 9.833803
-416.961426 -3.948996 9.777793
-417.522156 -3.377844 9.953806
-435.841980 -1.893269 9.968906
-435.438843 -1.577127 9.672341
-437.166199 -42.024437 10.298264
-438.648224 -39.469719 10.355380
-427.802460 -35.367809 10.306758
-431.738892 -34.807659 10.058043
-429.950928 -34.863022 10.138542
-423.210236 -34.991001 10.118504
-431.795990 -34.682396 10.128155
-430.289185 -34.557991 10.248303
-429.701813 -34.409470 10.390205
-431.723877 -34.253803 10.249228
-431.211182 -34.227303 10.199026
-431.062225 -34.199081 10.099937
-430.772308 -34.042885 10.088317
-430.211792 -34.348644 10.034770
-429.771667 -34.220589 10.199969
-429.452209 -34.179302 10.317264
-429.168060 -34.067890 10.353477
-437.954803 -33.891350 10.254357
-431.620880 -33.676060 10.272354
-431.567780 -33.909943 10.117764
-430.955902 -33.833832 10.184553
-430.704895 -33.910870 10.033807
-429.815491 -33.750648 10.268202
-431.339874 -33.452297 10.115074
-430.601044 -33.393738 10.055607
-430.263336 -33.208397 10.250065
-429.654083 -33.557907 10.171978
-429.394165 -33.468372 10.218127
-430.727386 -32.960815 10.051229
-430.244293 -33.165928 10.004230
-424.502655 -32.193398 10.231246
-408.360352 -31.975044 10.029747
-404.717255 -30.884720 10.219207
-419.687866 -30.445217 10.280624
-437.056152 -30.149776 10.013021
-428.181641 -30.012539 10.259185
-419.640381 -30.370197 10.308353
-419.510864 -30.340492 10.239441
-415.541260 -30.133104 10.038453
-407.218506 -30.363766 10.080443
-428.001984 -29.867126 10.089691
-415.411499 -29.958984 10.341874
-403.157257 -29.762766 10.013668
-402.798676 -29.860376 10.218819
-427.681580 -29.587002 10.389205
-403.022766 -29.099312 10.282528
-422.623444 -28.469055 10.104150
-422.354736 -28.452749 10.166523
-423.521118 -28.164200 10.208904
-422.254456 -28.324463 10.061228
-417.419250 -27.602871 10.002612
-417.169891 -27.663044 10.070713
-417.045990 -27.326799 10.158928
-417.831787 -26.948217 10.165056
-417.423401 -27.134455 10.397664
-417.197113 -27.090282 10.082820
-432.347961 -26.511286 10.253269
-417.901245 -26.793953 10.022230
-432.624817 -26.214428 10.175751
-419.774048 -26.147655 10.199423
-419.577454 -26.113691 10.278567
-419.069641 -26.234953 10.144672
-436.089264 -25.643488 10.355509
-435.858795 -25.668396 10.267783
-434.294250 -25.774570 10.150002
-419.766632 -25.922115 10.190434
-433.935364 -25.336493 10.203848
-432.580139 -25.347342 10.164859
-432.207092 -25.284418 10.307500
-431.865845 -25.387157 10.208669
-432.433228 -24.979818 10.180855
-410.928619 -24.860420 10.014593
-410.553101 -25.087257 10.150367
-432.678070 -24.752245 10.130441
-432.367096 -24.614365 10.356812
-410.661560 -24.598492 10.115238
-446.513611 -23.077660 10.285170
-418.384247 -22.802921 10.059969
-446.598663 -22.679131 10.114495
-446.220093 -22.699917 10.014630
-419.685699 -22.432030 10.357485
-419.004456 -22.608849 10.272583
-418.220428 -22.680000 10.172779
-417.985962 -22.664848 10.033355
-446.906860 -22.293440 10.013864
-445.548401 -22.060877 10.237271
-420.076294 -22.076214 10.116788
-419.969604 -22.362055 10.162351
-419.388062 -22.154274 10.108102
-418.540070 -22.181847 10.021366
-418.246887 -22.339556 10.027436
-416.626129 -22.095066 10.229622
-415.325806 -22.134319 10.096602
-435.652679 -21.743952 10.332260
-435.284851 -21.724648 10.317365
-420.858704 -21.766407 10.107926
-420.567352 -21.755449 10.062280
-419.397552 -21.823376 10.074125
-418.931610 -21.838890 10.383636
-418.564697 -21.828695 10.064127
-412.212982 -21.852224 10.003428
-407.381042 -21.774715 10.187595
-435.688660 -21.360746 10.317719
-435.351624 -21.515888 10.192423
-420.816010 -21.549259 10.170261
-420.624512 -21.373451 10.338756
-418.401642 -21.531898 10.183934
-415.107605 -21.438303 10.226429
-414.463531 -21.218990 10.026540
-438.359222 -20.858273 10.128592
-415.228577 -21.104969 10.168302
-414.957764 -21.124237 10.303594
-414.558990 -21.088125 10.023466
-413.819031 -21.146255 10.187962
-423.763092 -20.604740 10.064827
-413.808685 -20.484989 10.186979
-442.891907 -20.146183 10.282684
-423.842163 -20.333080 10.081306
-413.735992 -20.327976 10.218795
-443.318207 -19.931177 10.359922
-424.063568 -19.941753 10.013958
-423.785461 -19.783623 10.307577
-415.380005 -19.904804 10.095839
-404.755890 -19.977379 10.088728
-415.740997 -19.450108 10.324281
-414.827271 -19.525509 10.328789
-405.667145 -19.419737 10.379198
-405.207306 -19.400782 10.042871
-404.910736 -19.532351 10.154066
-424.074158 -19.077736 10.148146
-419.799774 -18.990637 10.058329
-405.415192 -18.963833 10.078371
-404.941284 -19.084642 10.285305
-404.528229 -19.125463 10.049453
-405.432068 -18.560902 10.065872
-405.139191 -18.542641 10.061572
-402.522308 -18.439922 10.359101
-424.332031 -18.322697 10.327854
-420.680695 -18.160603 10.158162
-420.629486 -17.670994 10.256541
-419.186523 -17.779747 10.302447
-415.818909 -17.757969 10.167336
-406.226318 -17.939655 10.268628
-405.845856 -17.771673 10.134371
-403.063690 -17.925362 10.281188
-419.712250 -17.524977 10.175538
-419.550934 -17.491291 10.152372
-418.234680 -17.473642 10.103075
-407.538361 -17.293297 10.057570
-406.411438 -17.348221 10.087436
-406.244141 -17.392046 10.166583
-405.914032 -17.599003 10.039357
-415.444366 -16.952801 10.390837
-407.503357 -17.045210 10.307348
-406.282806 -17.083895 10.248787
-405.678436 -17.101566 10.397276
-402.508636 -16.959335 10.023076
-414.723755 -16.564087 10.117649
-407.834106 -16.668423 10.255836
-407.328217 -16.606646 10.185322
-406.823242 -16.776852 10.180558
-406.559174 -16.658728 10.230067
-406.183044 -16.661015 10.161793
-402.856354 -16.536190 10.115037
-417.672516 -16.259066 10.104753
-416.434265 -16.357162 10.095858
-416.376312 -16.249249 10.028694
-415.642181 -16.390890 10.070506
-408.344391 -16.138081 10.015586
-407.619202 -16.349686 10.088215
-407.235870 -16.221859 10.040753
-406.872925 -16.378830 10.338782
-406.594177 -16.356672 10.004449
-402.700989 -16.179073 10.236133
-408.087372 -15.983163 10.214929
-407.693909 -15.861217 10.254807
-406.651886 -15.633287 10.173365
-406.146790 -15.876144 10.185575
-402.588104 -15.990504 10.098932
-418.544037 -15.368266 10.319736
-408.552399 -15.408360 10.135938
-408.183228 -15.441560 10.238726
-407.904022 -15.326642 10.066031
-407.080109 -15.368933 10.027349
-418.961121 -15.060585 10.153361
-408.530670 -15.008801 10.203072
-407.876892 -15.036563 10.105041
-408.230164 -14.646486 10.222918
-407.800781 -14.543860 10.142818
-407.385193 -14.618121 10.134783
-407.115051 -14.737128 10.201533
-420.276581 -14.087116 10.347309
-419.860657 -14.025271 10.264663
-419.409515 -14.263121 10.026551
-419.182556 -14.184378 10.172070
-407.492889 -14.145513 10.395761
-406.449341 -14.016342 10.135554
-401.423615 -14.262332 10.171962
-400.820862 -14.385359 10.011740
-400.721924 -14.144833 10.059768
-420.515381 -13.648591 10.073272
-420.314575 -13.918764 10.236796
-406.449921 -13.903509 10.182126
-406.079132 -13.919948 10.121264
-405.921265 -13.790827 10.252542
-404.928528 -13.644125 10.084160
-404.761230 -13.660082 10.147118
-401.725861 -13.645526 10.382884
-419.333008 -13.360749 10.134359
-406.446564 -13.472710 10.392785
-406.213684 -13.474195 10.381182
-405.914093 -13.307229 10.224475
-405.067383 -13.248627 10.132565
-401.656952 -13.597027 10.342222
-401.053894 -13.237153 10.042838
-400.250427 -13.493014 10.249863
-423.681763 -13.197974 10.083086
-422.849457 -12.957424 10.154432
-406.078400 -13.196568 10.352740
-405.602783 -12.862200 10.132385
-405.376801 -12.937466 10.163269
-405.800934 -12.693834 10.145495
-405.483704 -12.631974 10.125074
-404.954224 -12.678201 10.327447
-405.213654 -12.092080 10.338960
-405.102448 -12.156266 10.399408
-404.407562 -11.788638 10.093099
-404.541901 -11.228588 10.109117
-403.269073 -11.301597 10.234112
-434.019897 -10.869642 10.251473
-404.923401 -10.889543 10.273748
-404.760132 -10.946835 10.156676
-403.632721 -11.181981 10.096682
-431.747009 -10.206688 10.169552
-430.928986 -10.208408 10.287517
-431.684296 -9.822475 10.042690
-420.159882 -9.917732 10.033042
-432.415100 -9.444024 10.395736
-432.106415 -9.356804 10.189516
-431.806000 -9.410748 10.020834
-432.489990 -9.010550 10.340961
-431.506195 -9.072874 10.384801
-431.325256 -8.644646 10.163240
-430.508820 -8.440340 10.175745
-431.776306 -8.194483 10.349469
-431.200867 -8.273558 10.019272
-430.823608 -8.258534 10.351597
-430.478760 -8.352221 10.132358
-431.813568 -7.943100 10.313820
-418.949219 -4.594121 10.281677
-417.512695 -3.838562 10.376859
-434.956848 -1.690325 10.177894
-435.343323 -1.508790 10.370504
-435.064056 -1.416499 10.181944
-435.208069 -1.088162 10.196184
-430.790466 -1.046696 10.030847
-437.228821 -42.867409 10.788797
-438.614655 -39.764610 10.587429
-422.094910 -38.457214 10.472548
-421.883484 -38.459736 10.664415
-430.037598 -35.623596 10.508259
-428.619171 -35.608528 10.737498
-428.246704 -35.385712 10.488549
-429.718872 -34.812187 10.747725
-423.279602 -35.085495 10.542835
-431.833954 -34.428181 10.668918
-430.632233 -34.449028 10.517681
-429.359375 -34.597000 10.706053
-432.099609 -34.173103 10.689167
-431.956573 -34.218437 10.673471
-430.196533 -34.170670 10.467091
-429.791626 -34.264935 10.562804
-429.371887 -34.262787 10.445491
-431.566315 -33.733166 10.466084
-431.182159 -33.665287 10.571002
-430.601135 -33.862743 10.549057
-417.763977 -33.776382 10.519367
-431.253937 -33.528122 10.601976
-431.008545 -33.442879 10.643134
-430.549255 -33.580830 10.533054
-424.508362 -32.213768 10.745359
-425.017395 -31.871288 10.716701
-408.456299 -31.948269 10.798100
-408.394073 -31.684277 10.655609
-405.485901 -30.877100 10.418923
-405.050415 -30.974823 10.735027
-405.255371 -30.614452 10.649902
-419.617249 -30.313587 10.593290
-415.468323 -30.009542 10.647005
-405.279083 -30.336224 10.688663
-427.819702 -29.748932 10.561810
-415.389038 -29.884050 10.636280
-415.116089 -29.790117 10.722594
-427.972717 -28.950443 10.665991
-423.662048 -28.939663 10.722412
-422.505981 -29.042828 10.745009
-428.188751 -28.797516 10.639354
-422.663086 -28.548197 10.609804
-424.354614 -28.055107 10.430318
-422.491150 -28.197048 10.459613
-422.315521 -28.236677 10.618132
-417.423279 -27.722771 10.445594
-422.561340 -27.585299 10.468886
-417.376648 -27.417055 10.614095
-417.893158 -26.998552 10.716753
-417.335266 -27.094021 10.499746
-417.104614 -27.048378 10.550843
-433.135895 -26.507626 10.630397
-432.095947 -26.545444 10.704217
-417.930054 -26.647543 10.564350
-435.677429 -26.141056 10.469918
-432.643036 -26.234116 10.742869
-432.232269 -26.386219 10.650653
-435.750580 -25.697340 10.791564
-432.337494 -25.705868 10.723849
-443.563324 -25.537378 10.596749
-435.741943 -25.272469 10.515244
-435.559509 -25.475414 10.557673
-433.888580 -25.320528 10.704292
-431.793121 -25.381334 10.704643
-434.528473 -24.853794 10.703354
-434.006042 -25.184464 10.665565
-433.879700 -25.176380 10.591497
-432.281158 -25.085140 10.721292
-434.631561 -24.762161 10.692173
-432.931274 -24.594797 10.674951
-432.669006 -24.614861 10.535725
-434.153870 -23.542877 10.721306
-419.273041 -22.936964 10.601664
-419.461121 -22.540569 10.506765
-419.159546 -22.740562 10.702417
-418.597015 -22.716545 10.536756
-445.826416 -22.237690 10.419446
-435.504303 -22.054432 10.758354
-415.513824 -22.119223 10.584867
-411.571167 -22.201529 10.478925
-435.414429 -21.897556 10.559480
-420.216583 -21.612219 10.612996
-419.924805 -21.953867 10.788273
-416.606323 -21.842314 10.541194
-415.411072 -21.881756 10.671823
-407.549683 -21.703310 10.659746
-420.549072 -21.006651 10.447322
-407.895935 -21.002508 10.649223
-443.632812 -20.446455 10.795340
-443.047974 -20.540087 10.576762
-438.365234 -20.750301 10.631869
-420.528717 -20.746174 10.787558
-414.721069 -20.584248 10.425184
-443.597626 -19.969471 10.511127
-414.415802 -19.720627 10.409670
-404.913635 -19.839558 10.664078
-414.370483 -19.404951 10.604424
-405.692963 -19.226858 10.430437
-420.146393 -18.863472 10.440228
-405.939850 -18.835047 10.424849
-420.191681 -18.564310 10.445852
-418.932007 -18.512360 10.674317
-416.170502 -18.530514 10.605900
-405.118744 -18.552544 10.524264
-424.060242 -18.027611 10.517051
-420.195129 -18.280361 10.478988
-402.433533 -18.157843 10.483410
-405.065613 -17.638733 10.482698
-416.556061 -17.400076 10.720326
-407.524200 -17.204365 10.655382
-405.439209 -17.492950 10.588821
-405.006592 -17.441944 10.591695
-404.337006 -17.404280 10.508164
-419.009705 -17.082190 10.663458
-416.542175 -16.992405 10.478209
-416.154785 -16.949579 10.430701
-415.624115 -17.064089 10.467299
-407.890503 -16.874506 10.556135
-405.396667 -17.082264 10.598228
-404.692200 -16.904642 10.496128
-403.456757 -16.801285 10.718751
-414.250977 -16.533733 10.742055
-408.061096 -16.588371 10.491772
-403.242126 -16.794439 10.544010
-402.999329 -16.474380 10.460400
-402.699341 -16.640865 10.551005
-401.955688 -16.708168 10.540318
-417.831482 -16.172121 10.780394
-415.860229 -16.244259 10.680315
-415.563202 -16.106190 10.570200
-414.838684 -16.368914 10.682328
-414.393921 -16.248552 10.571877
-406.580414 -16.186342 10.521344
-406.272217 -16.065273 10.438085
-418.172699 -15.769486 10.548668
-416.020599 -15.987152 10.528801
-415.067627 -15.930030 10.420797
-414.765442 -15.974733 10.426272
-408.318298 -15.783366 10.713976
-406.972504 -15.667262 10.620076
-406.682556 -15.980904 10.413555
-406.365021 -15.619439 10.794090
-402.650238 -15.681778 10.591492
-408.620667 -15.284584 10.725247
-408.045410 -15.440922 10.433692
-407.456177 -15.463267 10.598484
-406.463165 -15.598870 10.786256
-444.005859 -14.800877 10.758307
-407.490601 -14.848721 10.793097
-443.903076 -14.642747 10.603020
-420.019257 -14.557927 10.641795
-407.051544 -14.599913 10.723006
-401.468109 -14.716757 10.437290
-419.472260 -14.247343 10.732178
-407.351166 -14.237393 10.458016
-406.650879 -14.040321 10.455264
-401.639618 -14.341771 10.472938
-400.823669 -14.010268 10.674088
-419.798737 -13.847543 10.560914
-406.700867 -13.837563 10.494208
-406.148956 -13.906536 10.742902
-405.233032 -13.723951 10.574247
-401.824646 -13.821635 10.529142
-420.014832 -13.469154 10.459648
-406.614594 -13.504046 10.428987
-405.342285 -13.365763 10.699955
-423.433716 -12.818747 10.627235
-421.366425 -13.121873 10.547312
-406.196564 -12.910006 10.648192
-405.798859 -12.993060 10.605393
-400.415161 -13.088681 10.633578
-406.196991 -12.489453 10.742793
-405.883392 -12.684471 10.584115
-405.539185 -12.682947 10.736545
-406.215698 -12.218047 10.480790
-434.039948 -11.680387 10.426226
-404.833008 -11.674050 10.636452
-404.879913 -11.432956 10.679272
-404.747314 -11.599681 10.690467
-405.140320 -11.141084 10.625742
-432.222534 -10.621119 10.552270
-405.075897 -10.743772 10.774776
-426.501648 -10.354284 10.405508
-405.680634 -10.079375 10.693184
-432.363129 -9.738914 10.432528
-431.824768 -9.764204 10.761076
-420.141022 -9.772399 10.608175
-405.788208 -9.934628 10.684804
-432.679321 -8.802053 10.407156
-431.817566 -9.132543 10.602287
-430.962952 -8.875033 10.605597
-431.804016 -8.694530 10.487513
-431.226379 -8.548634 10.708084
-431.434021 -8.108954 10.744076
-432.250885 -7.891916 10.587059
-431.475647 -7.835352 10.705488
-416.384613 -4.493950 10.440278
-416.967041 -4.074060 10.747205
-417.704987 -3.781712 10.489320
-417.165070 -3.884810 10.588135
-435.259979 -2.457331 10.530517
-435.495331 -1.684572 10.500945
-430.747864 -1.000514 10.686552
-437.266541 -41.868912 10.963266
-437.126129 -41.911106 11.044271
-438.317291 -40.231464 11.040256
-438.804077 -39.382786 11.017411
-438.689270 -39.365055 11.040668
-439.255646 -38.800259 11.131738
-426.983337 -39.098904 10.969283
-422.252930 -38.578697 11.010003
-422.520782 -38.309265 11.087412
-422.235657 -38.240631 11.000094
-412.241943 -35.746990 10.932143
-428.909302 -35.598019 10.845072
-429.916290 -35.013962 10.960401
-423.225861 -35.049183 11.004498
-423.087921 -34.956993 11.004298
-429.049683 -34.496067 11.137753
-422.694244 -34.704903 11.009754
-432.018646 -34.321465 10.877968
-431.899506 -34.359303 10.969273
-430.910706 -34.215439 11.038914
-430.005096 -34.002125 10.934211
-429.723206 -34.114349 11.046238
-429.305450 -34.277145 10.990708
-422.649414 -34.363811 11.131489
-430.401489 -33.701138 10.986420
-429.831818 -33.883305 11.129998
-429.539886 -33.963356 11.130287
-417.751038 -33.692802 11.126660
-431.506714 -33.455788 10.837547
-430.623810 -33.406601 11.195071
-429.886414 -33.405880 10.941845
-431.907898 -33.087448 10.816329
-424.633392 -32.530918 10.915396
-424.575958 -32.259277 11.065361
-408.560333 -30.964241 11.006371
-405.832642 -30.939920 10.909345
-405.570892 -30.885849 11.133389
-405.635895 -30.503712 11.150145
-419.644257 -30.317501 10.930341
-419.583862 -30.237648 10.949736
-405.748108 -30.352890 11.085774
-427.546967 -29.678259 11.049573
-415.358307 -29.893642 10.993141
-415.077026 -29.699562 10.985374
-415.212921 -29.562740 11.108562
-402.794891 -29.371288 11.159929
-422.640503 -28.341927 11.017944
-422.333313 -28.191780 11.136957
-422.507751 -27.973581 10.821999
-417.216217 -27.721939 11.133936
-421.235962 -27.219549 11.071414
-417.625885 -27.435820 10.901993
-417.400940 -27.276804 11.033722
-416.995270 -27.591925 10.819478
-421.244354 -27.067373 11.116983
-421.085022 -26.986822 11.183054
-417.517914 -27.153170 11.002849
-433.800720 -26.488564 10.943048
-417.965759 -26.598736 11.060307
-435.632355 -26.071178 10.975145
-417.933746 -26.355589 11.023787
-436.039520 -25.791090 10.990193
-435.503723 -25.900476 10.804072
-433.713165 -25.754440 10.936859
-435.373535 -25.346478 10.942511
-432.370300 -24.826736 11.109549
-432.513977 -24.510109 10.900928
-432.157684 -24.742207 10.897672
-446.050354 -23.243498 11.004099
-415.212952 -22.619089 11.176707
-446.329865 -21.661398 11.075418
-446.406738 -21.441002 10.987833
-446.290161 -21.543970 10.998619
-416.591522 -21.579847 10.989814
-415.670593 -21.434065 10.874427
-414.892242 -21.365623 10.993722
-443.190826 -20.900820 10.846562
-420.544800 -20.908699 11.039614
-414.766449 -20.942705 11.071960
-420.608612 -20.696945 10.816681
-414.687439 -20.785135 11.118378
-443.220215 -20.064240 11.089469
-442.837463 -20.146950 10.941557
-443.292328 -19.894669 11.028097
-404.795715 -19.590336 10.815578
-404.872314 -18.805130 11.040342
-419.278381 -18.546206 11.084499
-418.593567 -18.177311 10.928313
-415.168060 -18.258755 11.144548
-414.896118 -17.960196 11.061197
-405.649384 -17.663723 10.995081
-404.350342 -17.958639 10.964064
-418.198242 -17.455204 10.843472
-405.745544 -17.477180 11.006969
-405.558105 -17.432259 11.127522
-404.761749 -17.295696 11.158546
-402.849030 -17.386711 11.071416
-402.100555 -17.555117 11.128924
-417.793457 -16.806702 11.181757
-408.115387 -17.014399 10.928811
-407.907379 -16.950441 10.978351
-407.470520 -16.899010 10.802977
-407.103149 -16.815884 11.058352
-404.582123 -17.199554 11.078675
-414.640198 -16.672791 10.860240
-407.426483 -16.475060 10.990138
-406.716187 -16.658640 10.965261
-402.295380 -16.536877 11.194236
-417.760193 -16.283476 10.846108
-414.444336 -16.115833 11.176100
-407.531219 -16.064833 10.893930
-406.616760 -16.159180 11.073040
-402.920166 -16.225504 11.005038
-402.147797 -16.158556 10.909350
-401.960449 -16.289051 10.993440
-415.370209 -15.773801 11.027659
-414.659729 -15.974173 11.099049
-407.729004 -15.667849 11.115271
-407.564575 -15.973936 11.097341
-406.681000 -15.697294 10.875026
-408.477661 -15.416660 10.810641
-407.747681 -15.503746 11.067504
-420.386139 -15.098661 11.044753
-419.896698 -15.018008 11.018116
-418.674469 -15.086747 10.871151
-407.708099 -15.028863 11.110907
-406.874664 -14.809046 10.875781
-406.634003 -14.847517 10.889491
-420.339172 -14.747134 10.801453
-407.626740 -14.716470 10.801520
-407.302429 -14.728214 10.842705
-420.739288 -14.098190 11.166879
-420.141571 -14.266415 11.042738
-407.424927 -14.250421 11.114152
-406.387604 -14.032103 10.855778
-400.445831 -14.261651 10.877521
-420.489563 -13.639861 10.892845
-420.239380 -13.824694 11.061630
-406.462646 -13.873287 10.899343
-405.656006 -13.628389 11.058905
-401.473297 -13.708797 11.153419
-401.144928 -13.622581 11.082225
-423.091248 -13.258436 10.871778
-406.516754 -13.359426 10.929904
-402.090576 -13.428143 10.901964
-406.490601 -12.851673 11.104563
-406.262482 -13.000275 10.963306
-405.896576 -13.180405 11.082702
-401.352600 -12.807669 11.082195
-401.131073 -12.801059 11.085608
-406.165131 -12.169699 11.067840
-406.037994 -11.946427 10.834460
-405.122223 -11.636169 11.166874
-404.196442 -11.487485 10.943227
-404.665619 -10.913819 10.899356
-404.661133 -10.615480 10.977119
-431.998749 -9.661009 10.849133
-432.333557 -9.589608 11.049831
-431.431488 -9.238890 11.028220
-420.154175 -9.568635 11.164550
-431.477997 -9.155089 11.039412
-430.658356 -8.989071 11.061794
-431.626465 -8.747883 11.040037
-430.734558 -8.687358 11.038395
-430.923920 -8.165028 11.043846
-417.270172 -3.861376 11.168734
-435.022308 -2.530624 11.178525
-435.044342 -2.063609 11.091658
-435.078308 -1.765956 11.049664
-435.017212 -1.496089 10.952077
-438.200958 -40.429699 11.229913
-438.666931 -39.752991 11.358412
-438.234192 -39.761913 11.509483
-439.238098 -39.083714 11.230754
-426.884216 -38.996887 11.567949
-422.454254 -39.137352 11.476005
-422.329163 -39.053070 11.476437
-422.016083 -37.898041 11.437785
-428.823639 -35.279472 11.529682
-428.348846 -35.056164 11.571835
-423.337616 -34.912373 11.595646
-423.174683 -34.999428 11.575047
-429.375885 -34.556427 11.296609
-429.058594 -34.587830 11.265467
-431.440613 -34.385963 11.247397
-430.154144 -34.169258 11.521461
-429.451050 -34.245724 11.391782
-430.653137 -33.876919 11.447701
-429.929291 -33.692661 11.219534
-429.069611 -33.884739 11.298052
-424.436707 -32.126503 11.247025
-424.249634 -32.064102 11.432079
-403.983612 -31.174498 11.520929
-419.430878 -30.583508 11.564287
-419.662750 -30.279446 11.389665
-415.384094 -29.840191 11.269678
-428.064789 -29.236235 11.590759
-402.532593 -29.381460 11.340010
-428.001312 -29.120953 11.467128
-417.437988 -27.660667 11.561432
-417.024780 -27.639748 11.441029
-417.380920 -27.387012 11.336893
-417.144379 -27.556713 11.332836
-417.846100 -26.901329 11.310681
-433.542114 -26.426170 11.353841
-418.004822 -26.456064 11.570000
-417.916534 -26.587931 11.252643
-418.050873 -26.248386 11.566772
-417.928680 -26.360685 11.589097
-435.525269 -25.653496 11.231825
-443.499390 -25.523211 11.292715
-445.686890 -22.900883 11.487926
-445.925934 -22.726477 11.485592
-415.504456 -22.596748 11.330021
-417.112122 -22.346060 11.560816
-415.646942 -22.344437 11.525825
-415.400421 -22.364075 11.328144
-407.948517 -22.153818 11.369777
-407.534760 -21.622971 11.304403
-443.262939 -20.404348 11.309203
-443.137207 -20.663578 11.396406
-438.390778 -20.681702 11.207861
-443.602173 -20.028318 11.264259
-442.653564 -20.126053 11.541399
-442.879150 -19.607702 11.357037
-405.678589 -19.614347 11.545274
-404.984253 -19.852310 11.255423
-404.679199 -19.698765 11.497428
-443.006470 -19.349829 11.274953
-405.193756 -19.255245 11.337242
-404.773712 -19.527061 11.499706
-405.069855 -19.145594 11.452577
-419.010284 -18.537369 11.273070
-418.711304 -18.674084 11.466275
-419.901733 -18.023876 11.373813
-404.606171 -18.088127 11.365130
-404.977783 -17.859896 11.306967
-403.923737 -17.756584 11.407434
-402.442047 -17.858395 11.361990
-417.695557 -17.223835 11.440141
-406.188049 -17.513336 11.357817
-405.521729 -17.343117 11.251430
-404.981720 -17.533781 11.310896
-404.666412 -17.585087 11.423819
-417.821960 -16.977188 11.292425
-417.205322 -16.920742 11.210962
-407.660889 -16.997463 11.234762
-407.278656 -16.930338 11.285758
-407.102203 -17.098223 11.288462
-405.497314 -17.072178 11.295802
-404.760284 -16.844456 11.579095
-402.861023 -16.926252 11.513607
-416.275146 -16.455772 11.576970
-407.762085 -16.671574 11.299382
-407.268280 -16.516838 11.491519
-418.343201 -16.128422 11.548494
-416.477051 -16.356880 11.528325
-416.036041 -16.217827 11.392391
-415.218445 -16.106373 11.240652
-415.098663 -16.204819 11.296832
-407.712799 -16.232054 11.446297
-407.970367 -15.613455 11.596395
-407.357422 -15.962421 11.227509
-419.993195 -15.503248 11.281510
-419.331604 -15.587271 11.420326
-415.657684 -15.491655 11.568983
-408.141327 -15.279819 11.343622
-407.117340 -15.515005 11.442739
-419.482574 -15.058947 11.386023
-407.603149 -15.069571 11.336531
-407.411804 -14.976145 11.462622
-444.002014 -14.718966 11.508904
-420.582092 -14.502474 11.466825
-419.844696 -14.619211 11.429800
-421.277252 -14.225101 11.326709
-420.991913 -14.338737 11.371997
-420.209656 -14.313367 11.254812
-400.868286 -14.184853 11.576900
-419.523315 -13.838253 11.521065
-405.467255 -13.754270 11.292395
-402.028931 -13.795362 11.225126
-406.583221 -13.282009 11.526425
-405.942749 -13.400519 11.283874
-401.643768 -13.211967 11.446291
-401.290344 -13.288391 11.529996
-423.338165 -12.834345 11.382671
-406.165436 -13.096411 11.351078
-400.595215 -13.064382 11.352742
-435.097290 -12.577392 11.307274
-423.450470 -12.703817 11.334948
-406.020905 -12.403899 11.307267
-405.389343 -11.872747 11.421787
-405.045776 -11.945703 11.507328
-405.081482 -11.420619 11.295879
-404.606781 -11.401090 11.511487
-404.976074 -10.754646 11.529898
-431.582214 -9.778353 11.273723
-420.102661 -9.741977 11.306846
-405.516693 -9.760078 11.567138
-431.575562 -9.521066 11.202300
-420.636780 -9.545696 11.300630
-420.310181 -9.590569 11.235291
-430.494659 -8.588782 11.493100
-430.638855 -8.150713 11.488901
-431.234802 -7.914856 11.214495
-430.657440 -7.973437 11.455521
-417.246613 -4.347517 11.274357
-416.825653 -4.297922 11.524080
-435.159485 -2.733888 11.312114
-435.325012 -2.092515 11.280459
-433.991394 -2.396099 11.235627
-430.828369 -1.029403 11.500585
-430.736176 -0.932488 11.401565
-437.325745 -41.769394 11.699089
-438.412537 -39.966728 11.614298
-437.922180 -39.865105 11.697690
-439.240082 -39.508720 11.802418
-438.820374 -39.307354 11.761562
-438.526123 -39.435913 11.964574
-438.817322 -39.122852 11.605246
-422.524689 -38.956642 11.674835
-422.593384 -38.649403 11.877178
-422.360931 -38.705460 11.980234
-422.420685 -38.072617 11.654174
-422.274567 -38.275848 11.800158
-428.879211 -34.887203 11.751644
-428.099243 -35.178337 11.795500
-427.926178 -35.089153 11.806396
-423.075195 -34.896404 11.638291
-430.918762 -34.408913 11.824162
-422.945618 -34.733131 11.724884
-430.468658 -34.377365 11.632318
-430.123291 -34.305328 11.760060
-429.273529 -34.090260 11.781318
-429.165436 -34.368885 11.717098
-431.620483 -33.689877 11.728720
-431.416260 -33.838337 11.725384
-431.097961 -33.886662 11.626177
-429.741669 -33.991234 11.630510
-431.698242 -33.497299 11.660189
-417.665466 -33.581039 11.816858
-424.247314 -32.110802 11.764633
-420.428619 -30.884518 11.772411
-419.698547 -31.009539 11.817214
-419.390594 -30.889050 11.910278
-420.465637 -30.651854 11.807504
-420.247192 -30.731434 11.911234
-419.845306 -30.628807 11.760748
-419.702240 -30.214733 11.935688
-419.111450 -30.245399 11.822921
-415.284485 -29.713495 11.946051
-427.765320 -29.508904 11.688463
-426.663483 -29.299870 11.750074
-415.273438 -29.571148 11.896269
-427.779053 -28.735676 11.720944
-417.228638 -27.905249 11.699992
-417.349182 -27.423170 11.826493
-418.016815 -27.167683 11.846180
-417.783203 -27.049911 11.935181
-417.399750 -27.067398 11.751605
-418.042450 -26.581221 11.765836
-417.929688 -26.596695 11.739922
-433.739044 -26.110229 11.828276
-418.154785 -26.161148 11.710390
-417.937988 -26.134651 11.881858
-419.325653 -25.695168 11.957063
-418.907440 -25.942755 11.705858
-418.509705 -25.836653 11.669381
-418.100647 -25.815550 11.955693
-435.387573 -25.465473 11.628855
-419.011719 -25.544270 11.791363
-414.262634 -23.274387 11.959851
-415.511505 -22.985147 11.903828
-414.588470 -22.983433 11.836299
-414.398346 -22.870808 11.898817
-414.587982 -22.793503 11.698063
-445.656036 -22.357761 11.985910
-416.788666 -22.296947 11.781553
-414.776978 -22.008747 11.951869
-418.593445 -21.715075 11.831635
-416.742737 -21.998541 11.835329
-414.978668 -21.976665 11.787533
-414.762268 -21.698092 11.737902
-445.840027 -21.596052 11.646814
-418.586884 -21.397858 11.876525
-414.100952 -21.401844 11.903382
-407.551544 -21.488699 11.983807
-438.431091 -20.604998 11.829369
-442.987732 -20.110964 11.720072
-442.679840 -20.234196 11.621514
-404.737061 -20.168936 11.971845
-443.317474 -19.938616 11.801653
-405.623260 -19.241238 11.720202
-405.321533 -19.343014 11.883657
-404.740997 -19.277908 11.608085
-404.824371 -18.904537 11.689798
-405.585571 -18.680655 11.955361
-405.093018 -18.475584 11.678621
-419.421356 -18.198648 11.700912
-404.764984 -18.201736 11.979345
-405.606812 -17.622725 11.673765
-405.576721 -17.723688 11.655141
-405.135742 -17.742817 11.918714
-418.365051 -17.370094 11.865148
-403.014221 -17.224857 11.741728
-402.227112 -17.472370 11.873354
-417.267548 -16.874729 11.955431
-407.518463 -16.915653 11.886767
-406.976349 -16.953127 11.703563
-406.799469 -17.022572 11.792605
-418.197479 -16.772186 11.973155
-417.848083 -16.533176 11.777263
-407.056335 -16.739275 11.736311
-418.700562 -16.193573 11.626888
-418.189575 -16.335537 11.674953
-407.403870 -16.168419 11.665330
-406.637695 -16.102814 11.881483
-407.890137 -15.849166 11.774405
-420.185699 -15.251634 11.928790
-407.897461 -15.473516 11.701970
-407.300262 -15.554751 11.951234
-419.132111 -15.040592 11.628817
